-0.01847713,-0.011050978,4.9831815
0.45008487,-0.28528455,4.9517937
0.0052373298,0.18249965,-5.0984015
1.4918401,4.5709424,1.508938
-4.058121,1.0564163,-2.8637319
2.588694,4.3296766,0.21139598
-4.1182404,2.1124966,1.9625175
3.5599022,-2.6924736,2.1950328
0.048522823,-3.0392754,-4.04308
-0.3457832,2.1987984,-4.5980763
-0.01445438,0.08129676,-5.100307
2.8114924,0.92971295,-4.1335173
-0.0403631,0.072383136,-5.100283
-4.7934127,1.4665979,0.504098
-1.1165384,-4.20081,2.4090958
0.04182327,-0.19074242,4.977939
0.05372798,1.0981983,-4.9866686
-1.2931055,3.03436,-3.8955393
-0.9852294,-0.061266966,-5.003493
0.69798565,-4.9167776,-0.49125144
-1.9408787,2.0339997,4.1428666
1.5325861,-2.1766548,4.194237
-0.07191243,2.513264,4.3285313
-0.3004408,2.687287,-4.3328733
3.1820803,-2.4180243,2.9556863
1.9218464,0.36207354,-4.701648
3.929112,3.0441065,-0.893126
-3.235428,-2.427056,2.9112277
-1.4798954,-0.6854249,4.707683
2.9150078,-0.056668352,-4.156967
-3.34598,3.589174,1.1700213
2.6594608,4.0077786,1.4826075
-0.5024683,0.88370174,4.8867884
0.57404333,-1.9818027,4.52071
2.2488286,-0.49109828,-4.530827
0.25983894,-0.3594321,4.960356
-0.119287364,-0.7892525,-5.0303435
-1.4462277,0.79021275,-4.83071
-0.071523696,-0.8133822,4.910122
-3.8559704,0.34384808,3.170355
-2.6576421,1.2609494,4.0465984
3.2161343,3.7934823,-0.91788465
1.994469,4.6392646,0.17511712
2.8300073,-4.0176835,-0.9129689
2.650923,-3.924453,-1.6316495
0.12075054,2.8091693,-4.2624307
0.21280655,-1.3894377,-4.8873496
-4.1682305,2.2740676,-1.7814238
-1.6514632,-2.3123636,4.0817633
3.841399,2.2587957,-2.4077573
-4.5771956,1.4300524,-1.6261529
3.1573434,-3.0268626,-2.4783864
0.86902833,-4.8198595,0.8757398
2.2775123,3.994715,-2.153256
-4.5942855,1.1396688,-1.7989497
-4.3859353,0.5117012,2.3714602
-0.94625664,-2.4026039,-4.3638086
1.6756054,-4.588978,0.9394041
2.0811088,-4.2587385,-1.6143101
-0.6160988,-0.722249,-5.005024
-3.1853712,3.1684167,-2.3814435
-2.587464,3.7565775,2.132709
-1.3177434,-2.9141717,-3.9207113
-3.384578,-1.2607466,3.4413974
0.003967077,-0.002703614,-5.1003017
2.30257,4.003603,-2.1081305
2.5922976,3.7692342,2.0819278
-1.2591109,2.174598,-4.4464107
-2.854348,0.5979425,-4.1762266
-0.4019047,-0.7381784,-5.0242724
-3.5503464,-3.3442967,1.0684963
4.553715,-2.0573845,-0.21381731
-0.8182576,-0.6607509,4.868023
1.8306508,-4.607568,0.46242192
-0.46518692,0.5574375,4.935509
1.6198539,4.643929,1.1169369
-0.54061925,1.9379839,4.578411
0.63474244,-0.5262338,4.909635
-0.0030721126,0.15243056,4.9821157
2.6911318,-2.5585492,-3.4173183
-4.288413,-2.2330797,-1.3943713
-2.601674,-4.2570443,-0.32514486
-5.02379,-0.27206644,-0.0893558
-2.4082227,1.9982489,-4.0282364
2.6762395,1.126195,4.060115
2.0999658,0.89370316,-4.5532475
0.12580122,0.16039987,-5.097177
1.3105294,4.6062937,1.5687765
2.3552833,-4.3937936,-0.11840912
-1.420041,2.3728294,-4.2928863
3.5143929,2.7036746,-2.4582765
0.9446198,2.7222567,4.094449
1.3918308,-1.6384219,-4.5984077
0.4682441,1.3628584,4.7812443
4.6144104,1.910981,-0.65340614
0.84800214,-4.91092,-0.15562291
-0.8577561,-0.049878635,-5.0273294
-0.9758244,-0.8893937,-4.917921
-0.9077764,1.2568073,-4.866254
0.49169233,0.53127146,-5.0509043
-3.8493683,0.13277186,3.1913853
-0.36481085,0.009295303,4.9707246
-2.1987183,4.1002054,1.9352881
0.55672574,-0.2676619,-5.058912
-0.53670543,3.4031866,3.647632
-0.59174055,-1.1911628,4.7951636
-0.07747691,-0.7709783,-5.034125
-0.67973197,1.8569754,-4.7102838
2.7348983,2.0837266,-3.7493093
-2.6099236,2.3255105,-3.711355
2.4464562,3.307239,2.8708978
-0.71698165,3.7420144,3.273015
-0.11601893,-0.1750419,4.9777627
3.4312346,3.1986873,1.7951312
-2.4049163,-2.8787568,-3.385803
-4.9386725,-0.3256988,0.8453163
-0.8480043,2.4394908,-4.406812
0.6833974,-3.8262398,-3.2039714
-0.11096112,-0.57809865,-5.061322
0.03308005,-0.9754295,-4.9965267
0.22332068,-1.9302013,4.5745177
-4.5967607,-0.5119736,1.9220252
-2.2692702,2.3503942,3.8005717
-1.4543009,2.994793,-3.868634
-0.9654547,-0.7415782,4.829103
0.67283463,3.2132792,3.7882187
-0.47088343,-0.42370957,4.9407024
-2.3460536,-4.3487163,0.67556876
-3.4557602,-0.5113152,3.5685198
1.0005816,-0.8326629,4.8025618
3.5865703,-3.4375718,0.4184347
-0.76423365,-3.974769,-2.9954545
1.7877201,3.1342444,-3.5962162
-0.865962,4.5153146,2.0611866
-4.2097106,2.6452355,0.8401843
1.1322289,0.38707718,4.8389745
2.2178676,-4.4647627,-0.08142049
-2.1291518,-1.9508886,-4.1707206
3.0065985,1.0349604,3.8475685
0.23990263,0.057118353,-5.094234
-0.1584208,0.44392064,-5.0818386
2.2837217,-4.355826,0.76452714
-1.8701639,-0.9331786,4.522363
-2.3064432,0.033589013,4.425619
-1.0282391,3.729498,3.2051067
-2.688237,2.8328564,3.1550708
0.40191743,-0.5575639,4.9308233
-0.6321393,2.9789913,3.981182
-3.3576941,0.24029025,-3.8121915
-0.04782118,3.6937366,-3.5173008
0.73670805,-2.339535,4.3194957
-2.1404204,-4.4662166,0.5832053
-0.84848,1.8194181,-4.6973324
-0.21471584,-4.6027474,1.861321
-0.2212448,3.298296,-3.8891675
3.6460614,2.4815116,-2.4977293
-0.04272448,-0.19126733,4.978069
6.625397E-4,-0.25187275,4.9750223
4.841408,0.79975426,1.0071542
0.1973799,-1.6449667,4.6875815
4.075016,0.5582852,2.8302155
-4.3433795,-2.3643742,0.77219486
-0.9968971,3.8920937,3.0202775
4.82114,-0.86722124,0.98632276
0.9028035,4.032129,-2.977234
-3.3926554,-0.33850634,-3.7667305
3.614255,-0.036710452,-3.5497546
0.8999147,-3.206941,3.6807969
2.8130615,2.005079,-3.732948
-1.2253612,-4.1994348,2.3593817
-4.565831,-1.3559214,1.5398352
-4.8558865,0.89192045,-1.074292
-0.42660773,0.54248416,-5.057585
-4.761475,-0.7062663,-1.5144907
3.9130526,1.5678531,2.6922162
-2.5415537,0.038322847,4.2962503
3.0144532,-3.8597043,0.8940677
0.21437283,0.17976473,4.9764075
3.8766735,-1.1499075,-3.022803
-0.96744776,1.4590107,-4.7982845
-3.3444417,1.4561664,3.4334924
-4.7710676,0.27414343,1.5320946
-1.4978485,1.313804,-4.7010245
2.7468333,-3.9017313,1.4023157
1.3731664,-0.87260514,-4.8186965
3.6909444,-2.898125,-1.7741544
0.5902174,3.5098107,3.5357754
2.061553,1.1929013,4.3864164
3.2384856,-3.0396986,2.233685
0.13343836,-2.80392,-4.21338
1.3880473,1.8421767,-4.5504665
1.722474,-4.3675327,-1.7460017
-0.854529,4.4757195,-2.2655742
0.39016545,1.9125948,-4.719353
1.7313049,4.3077984,-2.061014
-1.1368169,-2.846677,-4.0280466
-2.355536,-0.31966782,4.3854775
-1.9762818,-4.5485973,0.52013487
-2.8423808,-2.0554235,-3.6533496
-0.16259842,0.24207947,4.976923
-0.2424956,-4.8051677,1.2603859
3.1846693,-0.7006359,3.7618425
0.999341,1.0002269,4.785387
-1.8975745,4.453261,-1.5416806
2.092139,-0.665697,-4.58319
-1.3844038,3.7891734,2.9985058
-0.34309632,-0.20492685,-5.08343
2.4614193,-0.08537925,-4.4466815
-0.55221874,0.3077696,4.9466076
-1.9380864,-1.3363428,4.388145
4.7007947,-0.9849977,1.3625644
2.9755104,-3.9989119,0.114932045
2.018927,0.15542896,4.5526643
0.22931708,-0.518925,4.9466224
-0.57715505,0.7708944,-5.0140204
-0.040825296,-0.14489032,-5.0970283
-4.0047626,0.32137185,-3.102298
3.7658617,2.1256588,-2.6424766
-2.1127636,-0.60979474,-4.5909514
2.96879,2.840087,2.8704844
-0.89900863,3.515318,3.4693599
-0.87004286,4.9391117,-0.75497943
-0.46210408,-4.095929,2.7702198
-0.14858511,-1.4677734,-4.866477
-3.4377913,1.8173596,-3.2829945
-3.5729413,1.4732735,3.1907022
-0.24730353,0.8079513,-5.0353117
-2.919341,-1.8102096,3.6092856
0.2325234,1.3202095,4.810383
1.6491041,1.8938589,-4.438412
-1.482342,0.007913559,4.7618103
0.19950928,3.8188252,3.2551062
-1.6174027,3.6068392,3.1021216
2.2592182,-2.0012996,3.947491
-1.6104536,4.630909,1.2044728
2.225844,3.7037413,-2.677144
-4.808506,0.89012307,1.1640488
-4.7177725,-1.4523946,0.86699146
-1.945361,-0.042045426,-4.71049
1.3848088,-0.12880415,-4.899469
-2.236345,3.4535224,2.8872848
-0.8385505,0.35267144,-5.021389
0.08296274,0.13320349,4.9816675
-1.3674066,-3.5568423,3.1892169
-0.06334367,0.071534894,-5.100095
2.8323383,-1.6955392,3.7177007
-0.66846824,2.5980642,4.2289963
-3.3598998,-2.808884,2.381124
-0.61930263,-0.28808185,4.935447
0.25449878,0.28388265,-5.0874987
0.39336511,-0.9045463,4.877374
2.6745567,-3.3822782,2.4676514
1.1364,-1.5374343,4.5889344
0.9749376,0.8879523,-4.9286914
1.8898622,-3.8062983,2.568565
1.681818,0.19452591,-4.80356
0.726613,4.511573,2.1139646
1.743686,-3.3918135,-3.2947755
-0.6569498,-1.252389,4.7707777
-4.5225005,-1.961736,-0.9961388
-0.11610701,-0.27820686,-5.089319
2.862913,3.7807553,1.6743621
-1.0877444,4.9126263,-0.6247774
0.8262934,-3.4219356,3.499557
-0.092629135,0.017418722,4.9826975
-5.005344,0.48254415,-0.35041204
-4.0522275,-2.3424423,1.7449149
1.7221726,-1.0244161,-4.669658
2.465354,2.0093057,3.8578596
-2.9964824,-0.46406624,-4.0811243
-2.3104973,-0.73285747,4.356259
-4.6822333,1.0357159,-1.6169642
-1.1923535,4.7253428,-1.4320421
-0.15533374,5.0144014,0.61928034
-2.63325,-1.0228685,4.1073313
-1.4295689,-4.7657547,0.32309183
-0.07336349,0.07972827,-5.0999165
0.8607861,-4.897037,0.29602417
4.6471767,1.0095084,1.5630623
2.969663,-1.2882373,-3.8936675
-0.32811528,5.0111747,-0.70030785
0.12263197,-4.6448874,-1.8785425
3.0708463,3.006188,-2.7029648
-1.488556,1.5510304,4.5144663
3.3453739,3.4569876,-1.579543
2.4702678,-2.8184714,3.2594469
-0.043810233,0.2155789,4.980159
-4.2233667,1.5632668,-2.3379612
0.4559968,-2.0147817,4.5195594
1.7223399,3.1992593,3.4535973
1.7695125,1.4565707,-4.553875
0.11684196,-3.3411925,-3.7868476
-0.77879465,-0.45765716,-5.016091
2.3528306,0.8007604,4.324882
1.9746033,-4.5577445,0.3664408
3.398876,3.1558495,1.9239242
-1.4969928,1.9551545,-4.4736724
-0.18353882,-0.19658555,4.974904
0.99162376,1.6945908,-4.711446
1.8917173,0.6141963,-4.6895723
4.8900084,0.38257316,1.0012187
-0.7738444,-2.3110528,-4.448579
-3.2868524,3.3532643,-1.939019
-2.9248664,0.022652796,-4.1647696
-4.788372,1.5206206,0.396171
0.42197978,1.3735198,-4.89991
-4.9160075,-0.96294445,-0.4650032
3.224445,0.23252308,3.7949317
1.4402522,4.6216087,1.4061028
0.14723587,-1.0856434,-4.970098
-0.5895416,-1.1301348,-4.9274936
-1.9691601,3.9766278,-2.4942894
2.3433616,3.8114552,2.2876678
-1.0644066,0.39893574,4.857703
0.6931509,2.7193522,4.1465344
3.104503,1.5135235,-3.7276638
2.3476388,4.4689674,0.1703303
-2.540672,3.1877644,-3.0551255
0.36852565,1.859973,-4.742128
-0.86668634,-3.1097248,-3.8923864
-0.5230126,-4.1594996,-2.7799141
0.30576226,1.7219366,-4.798488
-1.2143606,-0.4898477,-4.9245577
1.2020736,4.0974936,2.651702
1.3392893,-3.8064141,2.8914201
-0.21141239,-4.963559,-0.48436192
1.6703686,2.18261,-4.295121
0.44529662,-2.1576123,4.4534135
2.659618,3.0351644,2.974341
-4.366202,-2.4194996,-0.5277112
0.2750649,4.332696,2.5421305
-1.367495,-2.170095,4.260414
0.37006828,0.6904043,4.926191
-0.26661366,1.9600307,4.5926914
-2.8770432,1.266653,-4.0108604
1.4325107,2.1798573,4.2665367
-4.548269,1.3733789,-1.7551225
2.8591962,-4.0171113,0.6950566
4.429221,-1.3003008,1.8836852
0.023904715,0.03904133,4.9833174
-2.3517983,-2.3852954,3.680574
3.621995,1.2217209,3.216686
1.5006996,-2.163772,-4.329194
-1.7703955,-3.284866,-3.4013157
4.507173,-1.8679922,1.0430995
1.6813768,-1.8288766,4.303951
3.2246249,-3.6175294,-1.2518271
-0.067405134,4.394713,-2.5693808
-0.6386857,-0.81391704,4.8701386
4.4940715,2.020377,-1.076157
-1.7815949,4.2732205,-2.1069784
-2.818935,0.67692524,-4.1891246
-1.046584,1.5280484,-4.7600117
0.0033263215,0.128253,4.982598
-4.039026,3.03881,-0.060560897
-0.92417437,1.1202164,4.7787266
1.6260984,-2.8950925,3.6913419
-1.1328162,0.1543156,-4.9714966
0.45238248,0.28867182,4.955762
-1.7501332,-1.6555676,4.3552103
0.14780207,4.551102,-2.2688708
0.44545433,-0.6671691,4.9125934
-2.6631587,-3.529232,-2.4057047
-1.3295109,-0.9927784,4.6950383
0.02875684,-0.05765336,4.98237
-2.2382686,1.2332433,4.298011
-3.466347,1.3949568,-3.4545705
0.042153288,0.5648415,4.9553547
0.78388816,-1.8689976,-4.6544
4.1376653,-1.677382,2.2072456
4.28326,-0.06559697,-2.6755915
3.7972791,-0.05815841,-3.3471687
-2.7563667,1.9608978,-3.813568
1.370281,3.9133282,-2.9535284
-1.5806979,0.70168406,4.6839743
-4.534296,1.8828267,-1.2308803
1.8285438,-1.908165,4.2080383
-0.95708466,1.6595362,-4.7351623
3.9785068,2.9401639,-1.0180626
0.80175614,0.73624504,4.8676524
-4.943439,0.4648394,-0.90701234
-2.4471452,4.1252728,-1.6753385
-0.52060854,0.8379886,-5.009773
-0.18174888,0.31485805,4.972797
1.6471382,4.7330227,-0.73527926
-4.2255664,-2.1977878,1.5172606
-0.29428938,-1.2009562,4.819352
0.05413846,-0.24767901,4.9748683
-2.6091452,-2.3625774,-3.6373904
3.2723708,3.7173667,0.91047865
1.0055364,-0.2946135,4.868147
-5.0035973,-0.18598434,-0.5594042
4.9180074,0.7568291,0.60874087
0.019043243,0.08030847,-5.1002355
-0.9594609,3.5359335,-3.5503352
1.4151895,-0.50352633,-4.862759
-0.14444758,-4.187319,-2.7819602
-0.8690023,1.8685312,4.556909
-3.655323,1.5639887,3.0541556
1.8254715,3.7168133,2.839618
-0.067926854,3.4755223,-3.7354872
1.4783349,1.3671213,-4.6860285
3.0309098,3.3138258,-2.3617165
2.87748,-0.6829867,-4.1207466
-4.569317,1.609468,-1.4707751
4.270661,1.2464204,2.28637
0.28128552,4.747664,-1.7903773
-1.7227178,4.6454654,-1.1011736
3.1244621,3.9608898,-0.23404796
-0.6904161,-1.0221463,-4.939228
-4.5656314,2.0876265,0.47440165
0.1992544,3.0230296,3.9915211
4.5431194,2.0946193,0.47613633
2.240436,0.061470993,-4.5664806
-2.1499624,1.7765685,-4.2733755
1.0930883,-4.2211895,-2.4919212
2.1333249,1.5714607,-4.351483
4.9800572,0.18046036,-0.6287019
0.02133088,0.1227367,-5.099689
1.9398756,-4.0977316,-2.1471753
-4.895364,-1.1316166,-0.057213657
1.9392728,-1.5151312,-4.4362454
2.1720562,3.4093218,2.9714017
3.053703,3.0448873,2.5614545
-3.237665,3.8403566,-0.6637411
2.9797492,-2.8098054,2.814112
4.977517,0.33782217,-0.5882714
-2.4606779,-3.145675,-3.0848072
0.7723381,-3.866535,3.0155172
-0.49133247,1.7508072,4.6566157
-0.4985466,-0.78749806,-5.007591
-0.36986542,3.9953845,3.0265152
-0.80201066,-0.22707069,-5.0302362
1.8913313,4.0776753,2.2537084
-0.8844754,0.36777097,-5.0124555
-1.8366406,0.7565105,4.582484
2.9355776,1.9400824,3.552736
-3.1832159,2.7788908,2.7182758
-0.29907542,0.32924345,-5.083659
-1.5256629,-1.1708777,4.5927434
1.2838155,-4.538621,1.5658127
0.63942736,4.6907253,-1.8465911
-1.0704062,0.74878407,-4.9350085
3.2053854,2.8560963,-2.7070277
-1.9792602,4.328735,1.665469
2.7164142,1.1820565,-4.1352453
-0.3004381,2.3080509,4.4298754
4.5906425,1.9112817,0.6986458
-0.22749205,5.017626,0.5744738
-2.9054937,1.655159,3.7283568
3.604627,-0.57937604,3.388349
0.46393642,-0.120088585,4.9584813
2.0534863,-2.484598,-3.8954782
0.33403966,-4.8657236,-1.097349
0.94915384,-4.6855335,-1.4795763
2.8970344,4.0223026,-1.0207434
-0.67963266,4.74289,1.5771239
4.3604646,-2.4394891,-0.11176514
-1.7058835,-1.7985079,-4.4316397
-3.648334,-2.787291,-2.0693474
0.4144236,-0.02603135,4.965033
1.3776189,-0.62251097,-4.8588247
-0.76778334,4.829979,1.2513461
1.6852888,-0.5560742,4.650267
1.1741315,1.0377116,4.737663
3.3035998,2.2283099,-3.1464305
-2.2282574,-1.8689346,-4.157158
4.2462907,-2.573506,-0.61311334
0.6353346,0.11671038,4.941094
-1.3532149,-2.8851075,-3.930703
-2.483566,0.76248115,-4.3862386
1.9540927,-3.9034438,-2.4848404
0.31836104,-2.1546717,-4.5826797
1.9779756,0.34852132,-4.6786633
2.920218,-0.02788914,-4.1537895
2.9535668,2.473643,3.1977296
-1.8479828,2.0359201,4.1837234
0.6868838,-0.002721269,4.9345837
-3.9307935,2.517522,-1.9936315
-3.0257962,-2.5986717,2.983769
0.12726977,-0.74515235,-5.0368586
0.25559136,-4.0941277,2.796693
-2.418871,1.5239148,-4.224214
4.8093543,-1.0423875,-0.98342186
4.2303543,-1.0179168,2.4297836
4.875471,0.86307114,0.7784213
-3.5394428,1.2961733,-3.416923
-3.86064,-0.96618676,-3.1354456
0.033668935,0.022694798,4.9832196
-4.8453546,0.6512369,1.1619599
4.508137,-0.08851755,-2.2603784
0.11291705,-0.23323275,4.9745784
2.9192712,0.42020938,-4.13707
-1.8676031,4.3171735,-1.9306089
-1.4885473,-1.0214343,-4.758168
-1.0401907,0.9739957,-4.903158
3.3690417,3.5710433,1.1047642
-3.487931,-1.0905309,-3.5156305
-1.5381858,0.74152344,4.6921763
1.3272464,4.182057,-2.5741339
1.9744706,4.097198,-2.2640417
1.7632378,0.060646396,4.6590366
-1.6463537,-2.0332413,4.2312255
-4.3462434,-1.8778495,-1.7261317
0.47648087,-0.9026771,-4.9871135
3.804485,-1.5318855,2.8201914
-0.78682387,-4.5696244,-1.9094584
-4.4695253,-2.224068,0.42309776
-2.1674542,-1.1721551,4.3296647
-4.9408345,0.45043132,0.8119453
-4.231354,0.4999357,2.634905
-2.0601747,-2.2174158,3.949262
-2.080775,3.4949937,-3.0697238
3.6335046,2.344433,2.529204
3.3668227,0.2770206,3.6672971
-1.9193965,-4.48633,1.0038632
-0.3987367,-1.0359522,4.85138
-4.5252113,0.7730304,2.0246072
-0.9361359,1.5469538,4.6598535
0.11604886,4.539877,2.176151
0.19300434,-3.5688975,-3.5617776
-0.09797546,0.53681946,-5.0748568
-3.468872,-1.2473668,-3.4795306
-0.87326175,-2.0787206,-4.5479383
-3.6261053,-0.30160078,-3.541574
4.513011,-1.5943263,1.4029603
-2.8634534,-0.726634,4.01934
2.3965955,4.448345,-0.023381142
2.1598384,3.766443,-2.6436906
4.49616,2.2011633,0.45287853
-3.8331525,-3.0711617,-1.0371326
-3.2808578,-2.5982938,2.7059305
0.33522835,-0.36810768,4.955008
2.1494455,-0.10347098,4.4918957
0.44553965,3.5725758,-3.6128638
0.8732782,-1.3693932,-4.8166256
3.0079994,-3.9773998,-0.14789237
3.5856922,0.10674627,-3.5795166
2.8873215,1.8323448,3.6463683
-0.07580184,4.2311296,-2.8355815
-3.936578,2.9930813,-1.1053257
-0.7375951,-1.7902261,4.580554
-4.1950326,-1.4936821,-2.3851151
1.9562558,-0.12077462,4.5786843
1.9474046,4.3222175,-1.813726
3.430807,3.2546194,1.6964105
1.1191093,1.5685307,-4.7255034
-0.937008,-2.5782387,-4.2606797
2.523787,-3.0784626,-3.0869982
4.2914395,0.34609315,2.5287342
-0.21252824,-1.0360633,4.8626523
-3.2931097,-0.88036203,3.6444972
-0.55419034,0.0791795,-5.070618
0.089130886,3.9885135,-3.1724617
-0.28512675,-2.7011456,4.159041
-2.6565917,-3.8784368,-1.765027
-3.1559396,-1.9814509,-3.4261682
-3.9761999,1.0692961,-2.9746816
-4.2428746,-1.2578453,2.3246806
-0.0039639794,0.060348883,-5.100441
-4.1138945,-0.22907706,-2.9538236
-1.1351838,4.923356,0.27198744
-0.535441,4.88784,1.1474806
-1.9470259,4.669639,-0.25049284
-2.07854,-3.8979082,-2.4044814
-0.26929572,-3.1487505,-3.9471471
4.3821545,0.33042443,-2.4893785
-4.3027096,1.9211336,1.7543133
0.45521516,-4.9036593,-0.8359916
-2.3913698,-0.50552034,4.347134
-1.4077876,-2.07093,4.2972264
-3.4785204,-0.09100906,-3.7033145
-1.5731174,-0.11696166,-4.8475657
0.17152485,0.020464463,-5.0971794
-2.8966274,-2.368828,3.2868085
-1.7795547,-0.2037935,4.6538982
-3.3993118,-1.7766428,3.1866584
-0.5215288,2.1912327,-4.585143
2.9473684,0.75103825,-4.0714273
-0.7087179,4.645405,1.8254567
-2.0309768,0.6099729,-4.6386213
0.94242084,-0.5483955,-4.9739523
-2.489856,-3.5478818,-2.562704
2.0760093,2.0027494,4.0830193
-2.824616,1.1846689,-4.0731335
2.3399055,2.6943786,-3.630231
3.0337167,-0.24193199,-4.0602207
0.8868502,-4.1084766,2.6422162
0.069126375,0.22597829,-5.0963645
-0.8598018,0.12913263,4.909853
-0.8739852,4.469811,-2.2699387
4.220901,-1.6545804,2.0650575
1.5639527,0.5442886,4.70271
0.77318,-0.31933445,4.9089355
2.313797,0.6245142,4.372953
3.2606976,2.4796321,2.8818173
0.33026168,-4.7800417,1.3279821
-0.6032701,0.192382,4.945696
-3.3310897,3.5410025,1.3383727
3.2820952,-3.7097785,-0.6573718
2.6070902,-1.7785187,-3.957164
-4.704839,1.7607663,0.4196529
2.2428076,-4.1780987,1.4927669
0.15547723,3.0713062,-4.074765
-3.357939,-2.806071,-2.5038552
3.99115,-1.0555847,-2.9035954
-1.1496822,0.070715494,-4.968849
-0.66690326,-3.328489,3.625354
2.8861754,-1.3015301,-3.9529605
1.3421359,0.8552225,-4.8448973
-1.5768472,2.8351305,3.823102
-1.5500968,-2.7385185,-3.9653807
0.57857525,0.3470471,-5.056239
-1.52256,3.6569784,-3.2094333
-3.2250652,3.227109,-2.2418327
1.6937956,-0.323455,-4.787885
1.3975143,2.5113497,4.096678
2.262465,-4.442474,-0.0686576
0.24268533,-4.4114914,-2.385039
0.02628885,-0.025168953,-5.0999556
-0.10626062,3.6438522,3.45095
1.2532306,-3.9106627,-2.9058118
0.0033490579,0.1133997,-5.099916
2.3379412,-3.808491,2.1703146
0.94048643,-0.7788428,-4.9410596
-3.4428418,-2.9618697,2.0590498
-0.17761181,0.2774888,4.974869
-4.4483476,1.9637175,-1.4162024
4.2187715,1.7280104,-2.1888359
-3.0292394,3.9904375,0.652054
2.0723245,4.610084,0.0037729372
1.1795404,-0.2550035,4.8313375
-0.05551108,1.5097294,-4.8792663
-4.34125,-0.7954144,-2.4715526
-4.3649683,-0.39135522,2.4172251
3.6418273,-2.7812397,1.9380668
-1.0007873,-4.6019454,1.5985613
2.8811078,1.3531905,-3.96547
-3.8904288,-0.517258,-3.2114658
-4.0051374,3.0827026,0.022934634
-3.823205,-1.5505558,2.8103912
-1.6977767,0.35621858,-4.796607
-2.8993852,3.862721,1.4506848
-0.08791763,0.39542678,-5.0871463
0.039761193,2.6350305,-4.3746424
1.6400158,-2.0641496,4.211112
-2.7878513,3.719896,1.9399687
4.821602,1.1491909,-0.8770227
4.5792713,-1.9631543,0.36288312
-1.6887419,-2.3084857,4.068899
-1.2807659,0.47607526,-4.9166346
1.6375759,2.188676,4.18765
3.7137046,-2.1127033,2.5490463
1.9998128,2.5893087,-3.9057705
-0.22783883,-2.796951,4.098212
-1.5611608,4.692814,-1.143284
-0.18036865,-4.127945,-2.8706172
-0.7296526,0.047546417,-5.0484314
-0.5516835,1.3911353,-4.883771
-5.018516,0.121557035,-0.4383421
-0.5447971,0.22487803,-5.0683165
0.29462722,1.3951936,-4.903589
2.4094274,4.4173713,-0.5204314
2.2854264,4.2516446,1.4365546
-1.8787272,-2.481071,3.8798506
1.431872,1.6716604,4.484657
-0.08896437,-0.022318024,-5.099491
-4.807151,0.17801617,-1.5482857
3.2076008,-3.735014,-0.86827254
0.27621987,-0.7239503,4.916853
2.5628202,-3.5998137,-2.3874848
-0.13943505,-2.7238014,4.1512055
-1.5637228,0.08449231,4.7358727
-3.0560286,1.829505,3.5249083
0.433187,-3.2635543,-3.8323152
-0.13346727,0.04535218,4.9818892
2.515532,1.7968262,3.9269028
-2.4701083,-1.9005691,3.883323
0.4694076,1.1592419,4.832682
4.3159857,1.0770636,2.2843351
0.83580804,-4.0434365,-2.8726737
1.1560954,-1.5918163,-4.6818686
-1.6546392,-4.5122547,-1.4143418
-0.7073646,-4.0729685,2.7536445
-3.9917512,-2.6615193,1.3935139
2.8207402,2.5724874,-3.3578491
-0.7379633,4.984083,-0.558794
-3.1343966,0.5261238,-3.9760973
-0.143165,0.63140637,-5.0634775
1.2466621,4.6236854,-1.6881065
1.7608263,-0.5997287,4.6164002
3.4961514,-0.7943747,3.4550042
-4.539754,-0.31806734,2.0916104
4.4266167,-2.2272928,0.5973151
-1.1850924,-0.46352926,-4.9345646
-0.14123276,-0.1612743,-5.094766
-2.1599898,-0.6244866,4.4494195
-0.29757363,4.38349,-2.5730028
-2.4556735,-2.929522,3.1856563
-1.1573983,3.103456,-3.883862
-0.19430666,1.5627369,-4.8592954
-0.05819827,-0.07339624,-5.0990014
-0.15156607,4.575267,-2.2195432
-0.03834864,0.099278,-5.1000414
-1.42387,-4.7097993,0.7784476
-3.0864618,2.2288563,-3.3832865
3.7366807,0.5799142,3.2566228
-4.2981076,1.8115615,1.8727043
-2.430742,0.71081287,4.3073587
-2.6170876,2.064901,-3.8582394
1.5854009,1.4264451,4.515028
0.53910166,-4.546265,1.9288983
4.222504,-2.61712,0.4706305
0.8574418,-3.379353,3.533342
-4.873874,0.9621433,-0.91298616
-0.9263287,2.9202163,3.9673705
1.3680071,0.3221181,4.7817907
0.13523753,2.9635956,-4.1552153
-0.8616782,4.3594885,-2.4842832
0.94938624,-0.074953176,4.8894334
0.8872947,2.752373,-4.2050185
1.4179736,4.843147,-0.39913884
1.4305881,-1.9736701,-4.446453
-0.54225475,-2.935864,-4.0865145
-2.5751102,3.4597268,2.587237
2.3645973,0.057558756,-4.5018954
-2.7727084,-0.9181401,-4.158506
0.08313953,-1.3011546,4.800129
0.21486965,-0.9211909,4.8855624
3.906025,-2.9278417,-1.115467
3.9479246,-0.41948143,3.0132751
1.6201187,-0.42081708,4.6885133
-1.8570657,-4.598658,0.51397693
0.41534212,-4.864766,0.95491546
1.9991869,-2.362768,3.885068
-0.46028954,5.0220313,0.3885074
2.1187532,-4.5036387,-0.343161
0.41869912,0.83024275,4.901751
-4.5299377,2.1836572,-0.5112527
-1.5641005,2.5002866,4.0500975
1.5300016,-4.482507,1.5067682
-0.017654257,0.08608557,-5.10026
0.43484107,-2.6726966,4.1630397
2.4870772,-4.2774262,-0.67754936
-3.2838576,2.153618,-3.2393336
-4.870661,0.59446496,-1.2029392
-1.1960888,-4.5507336,-1.7293289
-2.6236873,2.7534776,-3.3923924
-0.22795607,-4.84967,-1.2023461
-4.4320445,-0.8609542,-2.2738671
0.8196138,-2.0261946,-4.5790057
0.053191062,0.89438015,-5.026408
-0.7880434,-0.46175143,4.897217
4.5817776,1.096157,1.6912191
-0.6065389,2.2293901,4.4387484
-0.02022276,1.6656027,-4.828761
0.79220355,1.4249997,-4.837433
4.5349946,2.1612377,0.22421287
1.201131,-4.3521338,2.0702355
0.8836559,-1.3659806,4.6988373
2.5755854,-0.3754503,4.244739
-2.7705348,-4.0459523,-1.0290442
-0.019619843,-0.008618433,4.9832025
2.8654926,-0.9425544,3.957375
3.8389978,3.1002622,-1.0882069
0.9082639,-1.4215009,-4.7940865
2.274436,-0.39218235,-4.528426
0.28355542,2.7714288,4.161584
0.8968459,-0.7220688,-4.9586263
3.0014894,2.1112754,-3.517155
-0.7694603,1.361643,-4.8623676
-2.302904,3.415585,-2.9974668
-2.655711,3.6975172,2.1508367
-1.4050424,2.4181864,4.1549983
1.0730677,-1.0692909,-4.8548207
-1.4626251,0.5029422,4.7453156
-0.004571033,0.088848755,-5.100237
4.345761,1.6464429,-1.9849747
-0.010050163,-0.0014869514,4.983274
0.3909333,1.4533743,4.7624636
-0.0029078873,0.12870273,-5.099676
3.3749478,-3.5317538,-1.0813756
0.084159955,0.336544,-5.090739
3.4786656,-0.28882107,3.5551126
-3.1564765,-2.424941,-3.1138518
3.0404963,-3.950947,-0.20895363
-0.998145,-4.179313,2.4953315
-3.5936778,0.227664,3.4694521
3.7322576,2.8257847,-1.9276537
-2.5906413,-4.26203,-0.35073885
-1.2785724,-3.334265,3.455006
-1.8303152,-0.9586863,4.5329604
-2.647807,-0.8396495,4.1408734
-3.021871,-3.0273993,-2.6690836
0.98764277,-2.2465556,4.319034
1.077325,3.1253586,3.7665524
1.3189209,-2.7880516,-4.0077524
1.2727553,-1.4832047,-4.6880484
-0.84279984,1.5962374,-4.778542
3.123867,-1.6171231,-3.6321826
-0.99714935,-2.157269,-4.4837513
0.24352849,-0.03874327,-5.0934873
-0.597034,-1.2873644,-4.885841
-0.8730001,0.8742932,-4.9541616
0.487031,-0.33863607,4.9444847
-4.9236913,0.02329417,0.9896226
-4.0403795,2.7613275,1.2016606
0.30197316,-0.5888436,-5.0512266
1.0532516,0.7379351,-4.936129
-0.5617667,-1.0355409,-4.9526253
2.8295927,3.6480665,-2.1027749
1.9220043,4.618854,0.669681
-1.7829684,3.0700302,3.546261
-1.1273321,-1.5635916,-4.703695
-3.6354382,-2.4897895,2.3379874
-1.5808702,1.2343662,4.577506
4.7665153,-0.7504787,-1.4072421
0.9555322,3.8484402,3.0814953
-1.2453551,-1.389791,-4.730607
-1.0466504,2.592959,4.156109
3.7890627,2.5903103,-2.1390529
1.4030162,0.7086571,-4.8501124
-3.4416142,0.15272647,3.6217153
0.37538072,-0.4870199,4.9409246
2.7159083,3.354914,-2.6779556
-0.71691144,0.29666495,4.9264436
-4.9502897,-0.80038977,-0.4141398
-2.5890372,-1.3194478,4.048014
-1.1855775,1.0986007,4.7263703
-3.3873413,3.4099805,1.5159212
0.67852914,4.8360677,1.2677752
-4.5603533,0.8393171,1.920363
-1.5578465,-1.8093609,4.365222
2.5277786,3.6613803,2.3319335
-1.6183164,0.7957442,-4.77419
2.2979999,-4.1925135,-1.4827996
0.5943484,0.38377494,-5.0519238
-0.65721804,-4.030582,2.8268692
1.4720607,-4.7429614,-0.4885933
-2.5205803,-0.13121265,4.305162
-1.6416,-4.512769,-1.4283978
-2.4467297,3.6780171,2.4101717
0.74326557,-0.625394,4.88185
1.3159267,0.929666,4.7217374
0.57649374,-0.20648994,4.942996
2.6948566,-0.48749936,4.1577144
3.594318,3.3098722,-1.3074592
1.404135,3.4588947,3.350574
3.204186,3.5183704,1.6206683
-1.2857912,-3.2229965,-3.6733289
-2.3055916,-2.0508645,-4.0227113
-0.7765887,-2.6660326,-4.2372003
0.07782186,0.09496325,-5.09941
1.2579538,2.6174417,-4.194299
-0.049240924,0.034488697,-5.1003327
0.35095987,0.25953704,-5.0825987
-2.0355518,0.58567744,-4.639573
0.13321805,0.2652201,-5.09332
-0.13040872,-0.13860545,4.9788547
-3.8629289,0.9795224,-3.1527863
0.1715614,-0.89516664,4.892363
-0.31516078,0.24866967,4.9696455
0.1288764,-3.4807022,-3.6540544
-1.8864126,4.6443963,-0.76910543
1.5896147,1.1539052,-4.705308
3.0222745,2.21623,-3.43288
-1.9520273,-2.0376215,4.098596
1.0072213,0.5706116,4.8500667
-4.5355334,2.1620684,0.43790805
1.6911683,-0.2877619,-4.7914524
-2.8090022,4.1325707,0.74382067
1.4627606,-2.3520722,4.12291
4.864143,0.9156097,0.791034
-0.8195953,4.4556637,2.2009685
3.0178907,-3.5408058,-1.8714155
-2.9898882,4.0694165,0.26996627
0.90157866,3.1512837,3.791536
2.6324036,1.16395,-4.195584
-2.5492458,4.1812034,-1.3385377
2.2272725,0.30632713,4.448067
-1.6178142,1.2897409,4.549938
-2.6171534,1.3517922,4.044433
4.210557,1.7822328,-2.1610498
-3.0561657,-1.3303363,-3.8249183
3.1875954,2.804524,-2.7824054
-4.5524454,-1.2299951,1.6778828
1.6804664,4.766979,0.092577964
-0.07810884,-0.8041791,-5.02856
-4.795902,-1.0919597,0.97146595
1.6303353,0.748992,4.6535363
-5.002553,-0.5022738,-0.19158708
-2.6999485,-2.2375922,3.5352385
0.4158836,-0.16395693,-5.078258
-3.2906284,-2.6084356,-2.801171
4.6776643,1.7452692,0.53973734
3.8512094,3.248077,-0.23564196
-5.013737,-0.16906404,0.3365293
5.0058813,0.27951652,0.10473184
-4.8898144,-1.1100302,0.26553074
4.4420166,0.1683288,-2.3919184
4.072027,-1.4977288,-2.56148
-1.7085794,2.5945427,-4.050272
0.6338545,4.651094,1.8314241
-0.105094135,0.819085,-5.0383587
2.5558286,1.5432001,-4.1220536
-0.36090967,-3.8983417,3.0543501
1.7230574,-2.6597054,3.8231752
3.1989899,0.7682107,3.7513828
3.0948672,0.1100122,3.9049647
1.2019277,-3.4147255,-3.5128195
2.4566827,4.412442,0.09619055
-4.6409383,1.638713,-1.1711437
2.7722113,-3.9584434,1.1820499
-0.188625,-0.16969548,4.975914
-4.2491045,2.5346227,-1.0794079
-1.4121544,0.902174,4.7046223
1.3697578,4.32223,2.1818798
2.5255098,2.591985,3.4598386
-1.0727347,1.873443,4.511987
-1.4843123,-0.681014,4.706981
3.116606,0.33006474,-3.9945323
-3.3515294,1.8919026,3.2141812
-4.454884,2.1873531,0.87217385
0.4045534,-3.5494459,-3.5631406
-0.46294534,0.48671964,-5.0597463
-2.5947635,-4.145743,-1.0867695
4.663398,-1.7975234,0.12277398
4.4163065,-1.1982781,1.9791455
2.8989804,3.88185,-1.4804946
3.2492774,3.8551552,-0.28518257
-3.4060278,3.6152782,-1.0155715
-2.7011752,3.2009363,-2.896044
0.87450224,-4.3219686,-2.4002995
4.762115,1.4304079,0.67371434
0.5528523,-4.9144554,0.5713979
-1.6417906,3.2547185,-3.5684857
-2.407575,1.7835054,4.010954
-5.0191703,0.305373,-0.32832402
-4.124908,2.7283487,0.97802633
0.5762977,-1.9867682,-4.6349826
4.109635,2.6941736,-1.1662129
1.4224284,0.73415256,-4.84064
-2.6951609,2.6351724,3.3124232
-1.9762945,-0.30217886,-4.685487
2.6562896,1.138532,-4.187027
0.6938605,-0.5421934,-5.016668
-2.8744848,2.3143203,3.3962753
1.8727566,-3.2978613,3.204009
-2.5930316,2.0000641,-3.9087255
-4.1327467,-2.7702165,-0.6532534
0.76187474,-4.20076,-2.651096
4.124335,1.1759183,2.569245
-3.604423,-1.6680329,3.0193622
3.0106945,2.205954,-3.449961
-0.15195964,-0.55668455,4.945947
2.7344973,1.3958352,-4.056218
0.99910724,-1.9144241,-4.5922623
-0.5866019,-1.0854688,4.82151
1.4562578,-3.5829191,-3.2283764
-2.4060185,2.846798,3.3606913
-3.2884746,3.7630045,0.7281634
1.4244472,1.4689392,4.5553384
-1.8114059,4.5804906,1.1121192
-4.4823484,-0.3169743,-2.3266888
0.061275,-3.0410624,3.9248466
-1.7236094,-0.76014274,4.612723
-0.7722114,-4.491787,1.982892
-4.3324637,-2.4750123,0.4286932
0.62944853,-0.35161847,4.927174
1.9562899,3.1771178,-3.465438
-3.5851183,-1.1048228,3.2924428
-0.515255,-0.31252348,-5.062495
0.31368658,-1.7257634,4.6513505
1.4084134,0.072606996,4.7783136
-4.7409716,1.7148623,-0.26581964
-2.062243,-2.923197,-3.571748
4.2414613,1.7604342,1.9987231
-0.26201624,4.6259284,1.9805452
-2.148582,-3.977302,-2.1964831
1.5564564,-3.7094047,2.9090352
-4.0300784,-0.24394307,2.951489
-4.583754,-0.95642173,1.7720766
0.61619335,-4.852533,-1.0248803
-4.8539557,-1.2926496,-0.07225245
2.1729698,-0.6806011,-4.542098
3.7001173,0.49996182,3.3097997
-0.85587245,1.5980622,-4.775592
2.9751704,-0.6526944,-4.054398
3.115863,3.7857854,1.1402663
-0.64480275,-1.4399636,4.717964
-3.6397088,-3.152702,1.3174655
-0.22541471,-1.1397097,4.838156
0.44235277,3.2951021,-3.870892
2.8047328,2.9283104,2.9465432
-0.8722551,1.6565751,4.6353974
4.5106583,0.80781376,2.0018268
-0.12298141,3.1273787,3.9158225
0.019147195,0.351365,4.9735255
-1.2730812,-0.60585064,4.7783957
0.05233329,3.8654738E-4,4.982906
-2.841721,0.6313382,-4.1802855
-1.7974278,4.409628,1.6603644
-0.03325576,-0.40203446,-5.0810018
-2.9506247,1.2308321,-3.9672074
-3.251673,2.592969,-2.9329453
3.7578065,-1.5449704,-2.991157
-3.5952582,-3.4794354,0.031933192
-0.20877004,-4.564623,1.9522549
-2.5191436,4.237033,1.0907893
-2.69807,-0.58031934,4.1552644
0.1490515,-2.7103496,4.1590743
4.8139,0.6136627,1.227671
-1.7581785,-4.3194737,1.7347591
0.2998077,1.0071855,4.8789573
2.324929,3.683178,-2.618302
0.33933577,-3.5055966,-3.6148465
-1.7562501,1.20669,4.521062
3.1749575,1.0195773,-3.8317862
2.5462923,-2.950314,-3.1960914
-4.931691,0.9943418,0.25609437
-0.82543206,3.8615909,-3.2255073
0.4722426,1.1194355,4.841422
1.6334395,-2.082884,4.2043285
2.1994812,-0.7543777,4.3995004
-0.035560414,0.6671417,-5.060812
-0.15285736,-0.11527525,4.979031
-2.007959,-2.0331516,-4.190874
-0.12661244,0.20114799,-5.0964847
-1.1369897,2.108195,-4.5112987
0.255984,-0.19703226,-5.0878816
0.5493834,0.566533,4.923968
1.1201072,-0.12508734,4.8515897
2.6658332,-3.0738568,-2.966338
1.6778402,-2.730429,-3.909615
1.3228459,0.1489826,4.8016024
-2.3625684,-1.3410774,-4.29267
4.914284,1.0228119,0.102566205
2.5305252,0.28055674,-4.401753
0.14231354,0.58139867,4.951525
3.9117267,-0.43492684,-3.1742916
-4.9676867,0.76819706,-0.411987
0.6888954,1.5601243,4.695032
-1.7903359,4.3722005,1.7603147
3.6765869,3.0514235,1.551023
0.2361484,-4.1237907,-2.8712199
-0.9697272,0.9095464,-4.929768
3.3822849,0.8362471,3.5735738
-2.9652069,1.476272,3.754484
-2.8433852,4.0024357,-1.2857833
3.1030354,-3.8741846,0.4371978
2.7478046,-1.496259,3.8648107
1.4108224,0.17157544,-4.8929243
-3.466688,2.976567,2.1064203
-0.063939214,-0.38950536,-5.0818534
-0.7309176,1.3282255,4.760229
-1.1709684,-0.6301401,4.8008075
0.0042952546,0.022891754,4.9833875
4.823404,0.43477273,-1.376468
-3.5694594,-3.2309241,-1.4340516
-2.0060935,-2.2327912,3.967977
1.5490859,-3.9775996,-2.6526334
-2.6781695,-3.2709095,2.6285007
-1.551979,4.1137595,2.4503837
2.3321235,-2.4183414,-3.7758358
-1.1559942,-0.49897683,4.8207283
1.4493338,3.6171384,-3.2801268
-4.409855,-2.3723764,0.19910379
1.4878197,2.5651028,4.031809
0.5097601,4.242188,2.6522017
-1.217414,4.262117,2.3871338
2.8307934,-0.49882236,-4.1821747
-3.9672737,2.452017,-2.0022209
-3.0356374,-1.7629857,-3.654321
1.5165085,4.803485,0.39387748
2.5867696,0.82307667,-4.302551
-0.28180197,0.4103142,-5.0792484
0.58425236,4.824293,1.3537066
1.3211807,-0.6748665,-4.86736
-2.236229,1.5132743,-4.329066
-3.526333,-1.5053234,-3.308811
-4.469848,-1.6498784,1.5269958
3.6783516,-2.9907866,1.5168673
-4.7645383,-1.4426162,-0.72179097
-0.26796487,-0.14381897,4.973449
-4.6045256,1.9732993,0.5613962
0.47730717,-3.4321573,3.554446
-0.28822032,-2.9422753,3.9907973
-0.74081355,0.1959479,-5.0443053
-0.3984704,-0.87948114,-5.000198
2.5499322,1.0808932,4.1519036
-1.6881509,1.1264486,4.5664043
-0.2926404,0.61807305,4.9416356
-2.7894585,2.5997543,-3.3798172
-4.1494346,1.9303366,-2.192681
-3.9185684,1.0920588,2.9267762
2.7891574,-1.5725502,3.8040495
2.9999921,-0.14010268,-4.0916705
-2.841954,2.9245913,2.9329832
-2.197733,-0.0054757055,4.4798393
0.41752473,0.01971138,4.9651456
0.48149428,0.64627624,-5.039147
-3.8095145,1.2609379,-3.1200547
-1.073136,-3.2424011,3.6079676
1.4134786,-4.687502,-1.0003655
-0.8346652,0.27619466,4.9092107
1.9099728,3.0555542,3.4825537
-1.5833287,-2.7280698,3.8427985
-0.5034504,-1.1434118,4.816916
1.7274865,-2.216229,-4.213207
4.379743,1.134022,2.1339388
4.2196827,2.2802317,1.4721304
2.8362765,-3.8678973,1.318678
-0.46015114,2.576501,4.268871
1.5075251,0.5101963,4.724634
1.3769518,-1.0616379,4.6602936
2.415385,-0.3416875,-4.457701
-1.1845702,-3.337489,3.484694
-0.6395674,-0.4551608,-5.0360894
3.372611,2.6545343,2.588137
-1.4494803,-2.6093256,-4.0923104
1.7788533,-2.386036,-4.093212
-0.28180167,-2.447492,-4.4313583
-0.9987128,-1.2781227,-4.8219037
3.2368617,-2.9890788,-2.4194505
2.6242502,3.0828214,2.9576278
-3.3680968,-1.4255761,3.3914921
-0.06133177,0.23856038,-5.09623
-4.495056,1.896727,-1.3541803
1.1577327,0.8460112,4.77793
-2.706898,3.6767516,2.1228611
-2.3146684,1.7777518,4.067119
1.301348,-4.225487,2.2611923
-0.75176066,-0.5066222,-5.0150604
4.408113,-0.73125,-2.3318245
2.228732,-3.3479378,-3.0291505
-0.20975353,-4.8330126,1.1585588
-0.23101349,0.2944051,-5.0890484
-2.233763,0.16096443,-4.577804
2.0003467,1.0218399,-4.5727935
4.462107,-2.0620387,0.85715026
-0.94138205,1.4735247,-4.799114
-2.618087,2.51672,-3.577414
-1.5407647,0.30952883,4.735794
2.8840227,1.0838076,-4.0444427
0.33890817,0.16066173,4.969779
-2.6883368,3.4017844,2.5487704
1.1351479,2.37157,4.2561855
-4.020344,-2.0127923,-2.2904682
-0.21349974,-0.13951065,4.976124
2.8218358,0.74890304,-4.161978
-0.8572577,4.1408134,2.724285
1.8809186,0.32994786,-4.7207174
-2.676676,3.9840956,1.5459126
-4.2493224,-2.0067997,1.7033813
-1.7434549,2.0496418,-4.338721
-5.0197315,-0.027510308,0.30828094
1.7440314,-2.6555593,3.8165832
1.8863899,0.6039544,-4.6930413
2.384068,-2.526024,-3.6676898
4.4577746,-1.922471,1.1449811
-4.554402,-2.0966623,-0.22067538
-0.15286465,4.482254,-2.406093
-2.3950305,-3.6392617,2.4050767
-1.472144,0.072388515,-4.881998
3.375218,2.103871,-3.1545436
0.10765089,2.5613782,-4.417108
3.5616944,-0.07969552,3.4857178
2.0795333,2.7589235,-3.7424963
0.4274322,-4.4843354,-2.209384
-2.5011525,-3.4159884,-2.7323976
-2.5856125,4.217847,-1.1279947
0.40607345,0.4731738,-5.0642405
-4.5479803,-1.4169794,1.5361693
3.337222,3.1922848,-2.088552
4.4376583,0.67524993,-2.3151462
2.6971664,3.3581667,2.5758584
-2.8845,1.2723815,-4.0036006
2.6315594,-2.8882794,-3.1838427
-4.464849,-2.14221,-0.8585051
-0.21269692,-0.58772665,4.9400196
3.6360416,3.4126227,-0.8116506
3.2885444,3.7037024,-1.0248376
-3.0987074,3.3873951,-2.18308
2.7099068,3.9207613,-1.7291905
-0.34923476,2.4530993,-4.4668584
-1.0711932,3.9268847,-3.0681484
2.0906265,-3.956698,-2.2726936
-0.20572273,-0.9051442,-5.006814
-1.4389482,-4.6777444,-1.0392226
3.6199248,-3.1710858,-1.3920139
-4.450197,1.1884083,1.9975497
-3.695057,-1.8834071,2.7737572
-0.7700773,-1.1084646,-4.907615
-4.723853,0.65303797,1.5711958
3.3248131,-2.5648067,2.6616304
1.8737653,-1.6832771,-4.401629
1.1539743,-4.7065434,1.1174487
2.3874156,2.418244,-3.7908843
-4.2701335,1.355798,-2.3802872
1.3257333,2.5898864,-4.1900277
-1.1392763,2.4951937,-4.3079567
-0.029182792,-2.098537,4.5047364
-0.040029556,-0.9231065,4.890221
0.12873244,-0.49358273,4.95321
-4.3299046,0.58713686,2.455021
0.8569924,-1.2704796,4.7311163
1.9653391,3.5464554,-3.0748904
-4.3722286,-2.386996,-0.63040423
0.83497775,-4.381217,-2.3010304
-1.3739423,-4.761248,0.52914107
0.018927999,0.3987811,-5.0874376
2.8783424,2.1432161,-3.6024544
-0.37822944,-3.9981847,2.9206707
3.0055652,0.21122612,-4.08774
-2.5160542,0.030219544,-4.428178
0.14062159,-0.6662393,-5.048341
1.7729931,0.034931093,-4.772419
1.7154418,-4.260868,1.8932731
4.410734,2.088919,1.168561
-3.8908455,-0.5633014,3.0853813
2.2068517,-4.4700985,-0.09583399
-1.6713336,-4.6797614,-0.52694064
-2.8161554,-4.000819,0.9692719
0.9533912,-0.9483165,-4.9068522
2.1327527,3.2055898,-3.3289979
4.9254155,-0.38449392,-0.9020642
-0.8395907,2.9983437,-4.04653
-0.36344165,-1.4149227,-4.8717694
-4.308646,-2.5214226,-0.5133046
-2.4527512,1.4504886,4.112756
-3.0716107,2.162564,3.3225322
-4.184734,-2.6487014,0.71101516
-1.2871101,-2.4653258,4.1206617
-2.7231374,3.469062,-2.5386994
-0.20865673,-0.15241358,4.9758444
-2.8566883,4.1752834,-0.19648905
-2.7474678,1.3469009,3.9596326
0.6198624,-2.946402,-4.0645337
0.62528026,4.659169,1.814402
1.7072694,-2.5189707,-4.041537
4.91221,-0.77297294,0.54149354
-0.45174485,3.8587809,-3.3027387
0.43775523,0.5655011,-5.0525455
-1.7935997,-4.641898,-0.45036614
4.3490686,2.1918983,1.2122627
2.742524,-0.9008549,-4.1699347
-1.2552571,4.2040014,-2.584758
1.0265191,-2.9234724,-3.9959438
-0.5168831,0.2849972,-5.0686274
-3.7282693,-2.6274605,2.0238576
-2.5947976,4.341189,-0.26271373
-2.0477946,-4.007998,-2.2369704
-2.8060198,4.0931077,0.93362427
3.6399367,-1.645592,2.9666004
0.06585485,0.37803194,4.9712944
-1.389507,-4.78927,-0.23212528
0.58448136,4.8589516,-1.34716
-4.7116966,-1.634725,0.5186674
-1.2505059,-3.4409776,3.3589916
-4.18549,-2.2654924,-1.6433002
4.417472,-2.3237736,-0.30696994
0.9076496,3.9629488,-3.0687904
-3.9711611,-1.8533063,-2.5100212
-3.1057835,-3.6464252,1.3876997
1.914212,4.5224037,1.1418316
0.08383016,-4.2613187,-2.6645286
4.6162925,1.0804763,-1.7242466
1.1839514,0.8524835,-4.887541
0.2899797,1.1266583,4.8544292
1.7738134,-0.26465476,-4.7622714
-0.0028731201,0.15893318,-5.099041
2.9577873,-1.5497061,-3.801757
-0.55152833,1.3216883,4.7856054
0.32892337,2.9058352,-4.184729
2.9538722,2.9371696,-2.9068613
-0.66295344,5.0140414,0.17549457
-1.4974924,-4.420086,-1.8390331
-0.76174057,3.1960313,3.7894099
1.1028256,2.579857,-4.262136
3.234093,-3.2857094,1.8641132
2.3135226,-3.3615289,2.830259
-1.9784561,-4.5810914,0.098574035
1.2490064,-0.9965339,-4.827865
4.620023,0.16982456,1.8950262
1.8539379,3.086542,-3.6034203
-0.55329543,0.28008547,4.947916
1.6245188,-1.7809424,-4.4627523
-0.73232985,0.59939677,4.8990574
-0.15639544,1.4848933,4.767537
4.6565013,1.0116403,1.5345265
3.1492617,0.2435057,-3.973715
1.5071402,4.293863,2.146628
1.8652529,2.0940802,4.139473
-0.48382774,2.4996223,4.310852
2.5603497,2.742231,3.3184693
2.7754016,3.3302279,2.528621
-4.2071033,1.4214618,2.3389018
3.3782206,-0.6885136,3.5924942
3.7714121,1.7431614,2.7865384
0.08734556,-0.6471988,-5.052341
-2.2424479,1.9152454,4.0463686
0.7522786,-1.0480115,-4.9213905
1.4861017,-4.184045,2.2246768
-0.32575887,-0.59962845,4.9325833
1.0582204,-4.049158,-2.7868595
2.5972326,2.521333,3.457992
2.8172271,2.116035,3.5503383
1.9906818,3.6502707,2.813705
0.87618864,1.2774171,4.746036
-2.5927775,-2.9096034,-3.2123494
-0.43794596,-1.4624051,-4.85095
3.6788023,1.7945079,-2.993353
4.3578067,-0.7325088,2.3104072
-2.4878213,-2.2491496,3.678636
-1.4010559,-0.1040486,-4.901136
-3.720829,-2.7259917,1.904408
0.260223,2.3444781,-4.529843
-0.77697396,-2.1502934,-4.53095
3.4004464,1.7831326,-3.320966
3.272178,1.5474824,-3.5628552
-4.9998484,-0.42156914,0.29672974
-1.8153166,4.337843,-1.9344416
-4.4626575,2.3634582,-0.0014775537
2.402621,1.9829617,-4.027489
-3.8667583,1.9570457,2.535188
0.7157465,-0.77876514,4.86282
-0.46357518,0.0162532,4.9627495
-4.256462,2.0451198,-1.8472981
-0.8840491,0.19974262,-5.0208983
0.6093852,0.90737695,4.8683524
-0.22347683,-1.9184879,4.5804305
2.020533,-0.7813631,4.4795628
1.8779796,4.1843266,-2.1846778
-3.974075,2.6158276,-1.7614964
-0.08032945,-0.08774283,4.9813504
-0.87784994,2.705506,-4.2416344
1.7969416,-0.33201003,4.631521
3.8705995,0.7825521,3.0557966
3.5139098,-3.3987358,0.95103496
4.9224153,-0.91659856,-0.002435005
-0.036757324,4.2703147,-2.775727
2.4153278,3.761754,2.2938335
-3.169437,-0.5973659,-3.9260423
0.07600738,-2.2117958,-4.56555
-1.2500407,-4.4103656,1.9263206
0.052480914,4.14557,-2.961607
4.1289644,2.6041923,1.1819314
-1.6329192,-0.7800563,-4.7587686
0.11059468,0.7934649,4.924631
2.5214407,-3.889466,-1.9104642
3.031637,-2.0297883,3.3764527
-1.7183441,3.9134629,2.6532547
1.1753843,-0.92695403,4.7445335
1.0443809,-3.6544626,-3.3090937
0.10472969,4.2891684,2.6259573
-1.01216,0.93210816,-4.917026
4.48026,2.2132394,0.5354577
-0.32045105,-0.5281296,4.941594
0.7285136,2.1084957,-4.592543
0.31113094,-3.8705466,-3.2092423
-1.0359694,-4.2758856,-2.427656
0.23420857,-0.9263315,-5.0005574
0.76973605,-4.6781917,-1.6087508
4.97498,-0.4164931,0.3753387
1.6789485,-0.89932495,-4.7129374
-0.7778704,-4.910674,0.33952388
-4.4730496,-2.1796916,0.5743774
0.6593975,-2.3235178,4.3407617
-2.4868598,-4.0462,-1.619365
-0.5920897,-1.7226183,4.62736
-2.1730795,-4.119263,1.7575501
2.4646952,-1.8509783,3.8989124
-0.1387537,2.4219313,4.377729
0.3810819,1.9887016,-4.6885796
4.415407,1.1030569,2.0763462
-0.870668,-2.6947737,-4.199739
3.5189579,3.1040003,1.7891952
-0.048887007,4.501345,2.2557752
-0.9966878,0.43135694,4.869349
2.2709212,-4.438185,-0.0534381
-3.1478853,-1.1520766,-3.8100457
3.5043545,-3.5043228,-0.64489794
3.0096912,4.0275736,-0.5177315
0.8271082,0.76524204,4.8591485
-0.89091086,4.949024,-0.6504765
-4.416714,-1.8105842,1.4958054
-4.682388,-0.3418846,1.7534678
2.2511349,-1.3341292,4.228376
3.7749643,-2.43448,2.1409318
-4.5445914,2.1056886,0.5752989
3.141996,1.8124228,-3.558218
-1.48579,3.7233346,3.0313625
0.12938738,4.9690657,-1.0150162
2.100487,-2.4253602,-3.9084861
-1.845623,-1.6572344,-4.432274
1.5628453,3.8125005,2.8710208
1.1596857,-4.825395,0.4092534
-0.3203686,-0.33272123,-5.0770173
0.7805008,0.8398801,-4.9723825
-4.5502024,-2.0447254,0.47580662
4.994053,0.41000107,-0.31435698
1.8911427,1.9316152,4.204224
0.08628026,-0.7691556,-5.0339584
-0.0028425658,0.0102382,4.983348
-0.059577923,0.07508252,-5.100109
-1.1175925,-1.0369668,4.739485
3.5402732,-1.3896872,3.2089038
0.2201941,0.9576777,-5.010039
2.141722,3.5908613,2.7781787
-0.4871514,-1.3286963,4.769555
-3.4189205,-3.6443665,0.17492293
-1.5154989,-4.753951,0.02080507
-2.2562687,0.88132834,-4.488231
1.2250773,-2.1771595,4.293922
-4.9302015,0.05779292,-1.0754615
-1.002476,4.790117,-1.3572901
-0.82715976,-2.6263392,4.136492
-0.29908252,0.33154544,-5.083524
-3.2991264,-2.681987,-2.7171476
-1.4808898,-3.7665148,-3.001103
3.9469557,-3.0545444,-0.19922158
2.4334948,4.1238027,-1.6706463
-0.06889768,0.0033124888,-5.1000156
0.5940872,-2.2347643,4.397002
-4.233645,1.5181503,-2.348724
-1.3140048,4.5819054,1.6483127
2.953787,-3.4446414,2.0293999
3.0619535,-0.60016286,-3.996545
1.1636089,-0.9169882,4.7494483
-3.8129117,0.7582062,-3.2726166
-0.16621561,4.864673,1.3321285
4.598004,-1.1135459,1.5854472
-0.5652226,-1.1486324,-4.925842
0.78910166,4.0172367,2.9132018
2.0747983,4.4105396,-1.3971478
3.3278065,3.222954,-2.0556712
-1.3890789,-0.9270179,-4.8088555
-0.16156995,-0.6223476,-5.0543356
3.2978878,-3.092121,2.0708284
-0.22389676,2.881568,-4.20995
4.7419963,0.16074319,1.5743188
2.1218069,-1.6712132,-4.2895136
4.2387986,-1.1935796,2.3320189
2.2696002,0.11617329,-4.551084
-0.9384986,-1.1218834,-4.8747396
1.9773756,2.3030026,3.9760575
-2.7396529,-3.1227794,-2.8601289
-4.90018,0.3512549,1.0515703
-2.013203,-4.296269,1.5083451
-0.21068709,0.32064477,-5.0884953
4.1403623,-0.85530746,2.6380398
1.3796287,1.8574989,-4.5468726
1.1022197,-1.6563218,-4.671859
