-1.3682451,-2.3995526,-31.51015
-1.6669441,-2.7001085,-31.5077
-1.6311321,-0.2732956,-31.513653
-1.351371,-0.38713714,-31.510262
-0.3023962,1.9663863,-31.514233
0.33351058,3.1391888,-31.517323
0.58346784,4.520163,-31.511105
2.5519207,-5.526314,-30.509806
-0.7205998,-4.9056935,-30.514618
-3.4366305,-3.4274416,-30.512106
0.83532804,-4.203667,-30.734682
-6.1122684,-0.8267742,-30.512657
3.9734113,-3.3843465,-30.512358
-4.239473,-1.3093758,-30.505129
-1.872324,-5.882332,-30.506758
1.6387349,-0.6294891,-31.665148
-4.126394,1.7602419,-30.513538
2.3472507,-0.08162894,-30.497906
-1.4854234,1.5163403,-30.436768
-5.454705,1.5666481,-30.50892
3.990557,1.9141747,-30.520191
2.4960597,4.0360513,-30.515638
-3.363829,4.6161613,-30.510107
0.3509447,5.650062,-30.509197
-4.9689937,-6.977752,-29.501593
0.659016,-6.401634,-29.503973
-4.8599343,-6.088059,-29.648739
5.0449257,-6.5976973,-29.374632
6.685117,-4.355431,-29.506975
-6.9071465,-2.3758104,-29.383955
6.9986353,-2.3927746,-30.06324
5.545372,0.55361545,-29.632113
6.8040066,1.2937398,-29.504562
-6.7864966,2.8497841,-29.516281
-6.4740725,4.7435093,-29.511122
7.415125,3.5240216,-29.511396
5.225521,5.077596,-29.522224
-2.4656374,5.4310837,-30.664648
0.6316155,7.504154,-29.612743
-0.819793,-8.78036,-28.551376
-4.2158556,-8.320075,-28.775763
2.5480359,-7.451499,-29.433851
-5.8285933,-7.4462414,-28.442043
8.234562,-4.300706,-29.69528
-7.4065924,-4.402895,-28.495462
-8.988661,-0.47483304,-28.305359
5.7606845,-6.67211,-28.413496
7.6227136,1.587925,-28.50993
-3.8000693,8.078781,-28.509659
-7.638774,3.924923,-29.291445
8.676024,4.64306,-28.469328
4.6983504,6.7703137,-28.32768
-2.0766258,6.9482436,-29.12329
6.7299247,6.679357,-28.51028
0.5809255,8.412235,-28.712503
1.1312819,-10.985308,-27.505854
-1.5012223,-9.426121,-28.494165
2.4806652,-10.509244,-27.386162
3.7191527,-9.59109,-28.001873
6.7825255,-8.291243,-27.480646
-8.396911,-6.4416785,-27.532406
9.821003,-3.142105,-28.735184
-11.202896,-3.4752166,-27.449652
-11.406705,-0.76642,-27.49462
-3.207005,9.160167,-27.7441
10.725387,0.883727,-27.542414
-10.443299,2.5797212,-27.476952
-9.847093,5.5320735,-27.566221
-9.444774,5.2759047,-27.516104
-7.368989,7.6013236,-27.510023
6.912313,8.31656,-27.767445
-3.538767,8.376468,-28.723274
3.6060274,9.56452,-27.510548
-2.563635,-11.571625,-26.509865
2.2305417,-11.649202,-27.280973
-3.2667525,-11.334327,-26.583944
4.808802,-10.243462,-27.63768
7.1601467,-10.20141,-26.515938
8.0853195,-9.750446,-26.511597
-10.203534,-6.2833548,-26.503689
-9.849319,-5.1805058,-27.117897
10.43717,-5.0357647,-27.457672
11.586459,-2.3099515,-26.618675
-11.821619,-0.999253,-27.095985
11.464304,-0.015716255,-26.71299
-13.304864,1.9088209,-26.529139
-12.693647,1.3380947,-26.512707
-6.700227,9.923149,-26.364597
-10.478945,7.367524,-26.51152
-8.559881,7.384346,-27.721151
4.4602146,9.507833,-27.586239
-4.391499,9.586683,-27.511736
3.957922,10.018889,-27.106485
-1.6773535,11.809974,-26.50777
2.6566167,11.6038685,-26.508797
-3.643857,-13.173953,-25.381195
0.40321687,-13.598823,-25.287235
-6.3194165,-12.432006,-25.527756
-7.433261,-10.501281,-25.547096
-7.773547,-9.697116,-26.230095
10.249137,-7.5346985,-26.605244
12.866527,-5.3050575,-25.526659
11.780494,-6.573808,-25.990448
13.7990465,-4.171925,-25.502365
12.762978,-0.11633414,-26.461346
13.846468,0.06362005,-25.985037
12.523687,3.2721314,-26.436918
11.418817,7.202017,-25.537899
10.762315,6.5187883,-26.766045
11.71449,6.75993,-25.731972
9.581133,8.673206,-26.501987
7.4411187,10.223874,-25.904825
6.127139,10.38487,-26.250908
-2.3365638,12.589928,-25.519356
5.295414,11.414723,-25.908415
-1.609755,13.276217,-25.454943
-5.358525,-13.402355,-24.507795
-0.07469608,-14.029803,-24.901133
-7.7091355,-11.588602,-25.29381
7.7353616,-12.381179,-24.469385
-9.648507,-9.971361,-25.68426
1.6096624,-14.458136,-25.56366
12.417256,-5.915537,-25.443754
-15.537004,-0.7799843,-24.362589
13.85864,-4.0435243,-25.727875
14.987038,0.9840273,-24.545727
12.532307,4.8058853,-25.624138
11.703277,7.9636493,-25.024473
11.889535,8.51988,-25.288486
-7.121515,11.622092,-25.595507
0.50297034,14.448571,-24.325819
3.4543486,13.491588,-25.58234
-1.522919,13.612169,-25.51057
2.9969413,14.147138,-24.986263
-3.006376,-15.16068,-23.769129
1.6231841,-14.3513365,-24.553465
6.768161,-13.6588745,-24.290916
3.1800308,-15.532968,-23.369038
-12.37987,-10.381126,-23.510262
-10.630956,-10.381686,-24.17352
-12.696949,-8.930539,-23.913208
-15.680882,-5.567418,-23.54416
-15.459166,-4.845349,-23.546606
-15.7884245,-3.088113,-23.905163
-15.359578,-1.9954257,-24.422533
15.581582,3.7138567,-24.30249
-15.7830715,5.2697554,-23.274868
-13.8215475,6.9264774,-24.40737
-13.719016,8.323572,-24.328
-10.406196,11.763678,-23.285284
-10.634666,11.6762905,-23.539528
-7.3666716,14.716466,-23.381187
-3.0838368,15.247837,-23.98073
0.50516385,14.42862,-24.666088
-4.356906,-15.493559,-23.421099
0.62917167,-16.182959,-22.771524
6.6397076,-16.011627,-22.437716
-8.627556,-13.883006,-22.509802
-11.375475,-13.564662,-22.497475
-12.124568,-11.644231,-22.42528
-13.378943,-10.4108095,-22.49434
14.461202,-8.206682,-23.365187
7.482126,-15.455812,-22.501966
-16.326677,-3.558867,-23.513422
16.949486,0.35984585,-23.243809
-16.227633,-1.9607207,-23.71512
-16.725769,2.9271603,-22.534384
14.108765,7.2246904,-23.690273
-16.091,7.006115,-23.23491
-9.846464,12.992492,-22.43368
-8.966925,13.723097,-23.631542
1.7877746,16.424358,-22.932737
-4.477572,16.707228,-22.399786
1.3257021,15.645186,-23.483545
-7.869121,15.359374,-22.657104
-1.1133013,-17.231586,-21.692337
3.6084354,-16.363926,-22.613182
7.962561,-15.6368,-21.27974
-11.528009,-14.562086,-21.32825
11.946281,-12.029451,-22.567007
-14.905056,-8.648312,-22.559938
17.413969,-4.1499367,-22.374006
16.399357,-4.432816,-21.477425
-17.828108,-1.9551797,-21.968168
17.508207,2.4278026,-22.74822
-16.301285,4.8518014,-22.50112
-17.285255,3.709057,-22.294868
15.621419,8.537659,-21.302895
13.860731,10.329413,-22.500147
-5.5304604,16.16826,-22.290186
8.207928,15.693374,-21.441063
-5.30565,16.584394,-21.532421
0.8139409,16.881115,-22.245676
-10.107959,-14.819093,-21.018084
-0.2601744,-17.570427,-21.354647
-7.202086,-16.30464,-20.725393
0.16680902,-17.855694,-20.903782
8.287075,-15.697039,-21.346373
13.761703,-12.363584,-20.400274
-17.311947,-6.446303,-20.83487
-17.655922,-3.583156,-21.677744
17.453884,-5.579859,-20.61582
-18.111567,-3.4212382,-21.68727
13.547734,11.609038,-21.175108
17.69527,2.2013526,-21.503426
-17.71216,5.3299522,-21.029655
16.72495,5.853633,-21.590586
14.553872,11.707538,-20.505657
-12.704973,13.469049,-20.312984
9.118248,15.650468,-20.823942
9.277054,15.803116,-20.51372
5.483883,16.597038,-21.243067
-0.47445247,17.584436,-20.304276
-0.34893698,-18.398708,-19.450092
-4.552666,-18.542412,-19.349783
4.9570174,-17.433052,-20.584276
8.710209,-16.4621,-19.41814
-12.18884,-15.181361,-19.742971
15.085406,-10.486795,-20.604395
-16.353085,-9.227227,-20.577534
16.37303,-8.198519,-20.411316
1.7452118,-18.39743,-19.286547
-18.212875,-3.519626,-20.457514
18.638105,0.21885607,-20.38686
-18.61438,-1.8358369,-19.936287
-18.238651,1.3383183,-20.308739
16.502481,7.7448378,-20.570074
-14.607589,12.116235,-20.688797
13.141233,12.260714,-20.563833
10.552923,14.665488,-20.506157
-8.051657,16.992678,-19.305172
-6.0989265,17.661854,-20.58322
3.6654556,17.604189,-20.504902
-7.149561,17.084196,-19.993553
-1.8415868,-19.040012,-18.891088
2.7043433,-18.401299,-19.51233
6.997607,-17.278152,-19.328661
-11.14344,-16.078314,-18.947054
11.294453,-15.746272,-19.418116
-14.611354,-12.309849,-19.319584
18.258017,-6.2550893,-19.13391
19.304096,-3.0496612,-18.680883
-19.069468,-4.103746,-18.708857
18.294893,-3.526842,-19.690247
-16.536901,10.375479,-18.379126
-18.61837,2.2854478,-19.481802
19.017042,4.688465,-18.284824
-17.072138,6.8558874,-19.656918
-14.004566,13.135645,-19.547194
11.608735,14.4269,-19.553692
-9.802132,16.03427,-19.572752
7.6708493,17.597221,-18.48261
-7.14348,18.243187,-18.39145
-0.8933074,19.21699,-18.928768
4.5655937,18.612268,-19.511581
-0.97842836,-19.40742,-18.374405
-7.6255255,-18.323385,-18.06317
-8.337851,-17.388723,-18.516607
-10.731787,-17.2676,-17.336426
12.762567,-15.678803,-18.014816
-13.581333,-15.126332,-17.547024
16.276405,-11.125171,-18.459265
-1.6746478,-20.161663,-17.834753
-19.127878,-5.339399,-17.395655
19.824886,-3.0595572,-17.380531
-8.724569,-17.839014,-18.01994
-20.290016,-2.3226182,-17.59205
19.371996,5.1813273,-17.663134
-16.69544,9.343233,-18.692654
12.560497,15.415791,-18.64052
15.0811405,13.085099,-17.469156
12.396675,14.38073,-18.71638
-10.071461,16.665142,-18.605776
-7.425038,17.556036,-18.50023
-3.943168,19.482807,-17.863197
-0.537013,19.600977,-17.80315
-7.3518095,-19.407919,-16.510658
-0.11053373,-19.657547,-17.249544
3.9864132,-20.174183,-16.289566
7.596681,-18.407963,-17.535278
10.347601,-17.306578,-16.784153
12.245871,-16.68154,-17.12172
-16.26215,-12.21592,-16.591602
-19.109453,-6.9192142,-17.564152
-20.667044,-3.0354195,-16.452745
19.80909,-5.976822,-16.416534
-19.956778,-3.9053524,-17.579378
3.560371,-20.344425,-16.90114
19.485611,3.6899722,-17.460041
-20.55847,4.274142,-17.331097
20.898771,2.05481,-17.208014
19.175753,7.094237,-16.642847
-15.324569,13.684722,-17.404829
15.913646,13.236541,-16.43679
-11.411744,17.25671,-16.7485
-7.2107897,18.610447,-17.549143
-0.43218303,20.183483,-16.472393
-0.6609653,20.77638,-16.324947
2.622346,20.59999,-16.506824
-1.0458163,-20.977146,-15.952981
-8.327395,-18.977934,-15.786019
5.632959,-19.397362,-16.494852
9.898279,-18.701677,-15.281721
-12.675835,-16.79868,-15.744811
14.443106,-15.619931,-15.462265
-16.680422,-12.22277,-16.278753
20.279922,-5.8995023,-16.193085
20.343458,-3.683225,-16.438921
-20.201237,-4.89514,-15.384565
20.41479,-3.6189537,-16.752022
-19.4506,8.777617,-15.403496
-20.624504,2.4760249,-15.653869
21.027315,4.5893025,-15.279423
-18.974459,7.00981,-16.63669
-14.825919,14.606179,-16.562634
14.469267,14.559914,-16.736172
-11.679046,17.054977,-16.640877
-10.061958,18.235344,-15.577327
8.159608,19.277285,-16.107628
-3.347444,20.26117,-15.776835
1.5982999,20.601532,-16.498837
-1.8991419,-21.407856,-15.337646
-4.6935186,-20.207901,-15.693699
5.6345315,-20.39942,-15.507524
6.964574,-20.025585,-14.885944
-14.283463,-15.809549,-14.823266
12.676548,-17.348742,-14.477509
-15.401852,-14.297143,-15.68539
3.9255133,-21.259981,-14.3017025
18.335516,-10.047036,-15.450324
-20.76056,-5.660878,-14.368221
21.046728,1.0377527,-15.067601
21.137924,4.0673647,-14.659381
-21.284029,2.5750387,-14.39541
20.24355,5.691347,-15.78116
-16.675116,14.196635,-14.398362
-19.96277,8.224306,-15.450322
18.503222,11.654506,-14.282532
-16.535143,13.252616,-14.654173
11.01179,18.660734,-14.552137
-10.330276,18.898693,-15.248189
-6.2450166,19.889547,-15.23824
-4.3243704,20.657059,-15.456532
1.4523358,21.249977,-14.878845
-6.3152256,-21.288921,-13.713717
0.6414201,-21.401623,-14.507911
-7.9444027,-20.405966,-14.364365
6.9982743,-20.41877,-13.768816
-10.337283,-19.386015,-14.535773
-14.98135,-16.585953,-13.754866
-15.038506,-15.549149,-14.708816
16.163097,-15.14162,-13.452944
19.831457,-7.904811,-14.598539
-21.786222,-5.399601,-13.291985
20.805723,-3.1020474,-14.55692
18.385492,-11.3833275,-13.357406
-21.529144,2.9758425,-14.158798
21.512068,3.42902,-13.409489
-21.224194,2.7530937,-13.648095
-21.208328,3.6919372,-14.022249
19.750557,10.400702,-13.353449
-14.975587,14.936313,-14.581484
15.119564,15.884316,-13.777955
12.423497,18.69233,-13.43686
-8.503366,19.53323,-14.5138035
-5.1798706,21.339201,-14.020764
-4.5331025,21.599812,-13.785456
1.619817,21.600367,-14.535046
-0.12679884,-22.409063,-12.839433
-1.6119943,-22.291643,-12.706607
-9.346266,-20.417294,-13.50942
8.304308,-20.345503,-12.790822
-14.179876,-17.056948,-13.172137
-13.266619,-17.434225,-13.567316
18.861277,-12.210346,-12.822174
20.598467,-7.4783773,-13.052066
-21.452164,-8.222317,-12.41943
20.09659,-8.505295,-13.633141
-2.389574,-21.63641,-13.576771
-22.28457,-2.6335812,-12.643703
21.662203,1.0407108,-13.299768
-21.842054,-1.3303605,-13.007445
-22.107786,1.7869804,-12.604534
20.345446,9.096337,-13.59242
-18.219034,13.133925,-12.781357
11.167942,19.055235,-13.438926
14.057036,17.26103,-12.447467
10.409884,18.386549,-13.701316
-8.214506,20.593,-13.4118395
6.599406,20.634684,-13.480287
-2.1767952,22.80707,-12.286785
3.915157,21.611917,-12.892054
-0.3676218,-22.399591,-11.512895
-7.894685,-21.15632,-12.276582
6.3124785,-21.414068,-12.556865
9.58457,-20.410583,-12.542823
-11.905198,-19.208538,-12.181789
-17.59612,-14.545395,-12.016101
-19.5226,-11.76275,-12.516085
19.170174,-12.2728615,-11.369382
-20.070448,-10.307905,-12.598182
18.934633,-12.8546505,-11.43481
22.04549,-1.7996595,-12.632188
-22.413929,-0.6350709,-12.014403
21.566647,-0.9090081,-12.571071
20.310827,11.168699,-11.392542
-20.826193,8.647204,-11.286339
20.184435,10.397887,-11.72599
-20.494152,10.584239,-11.596267
-18.364647,12.45755,-12.062807
15.042121,16.554836,-12.184318
-11.351577,19.620193,-11.468789
-8.570154,20.390673,-12.710443
-6.0462394,21.59576,-12.694595
6.6414647,21.598728,-11.507846
1.8070738,22.600788,-11.927902
-3.6891568,-22.292217,-11.675235
0.66290057,-22.399775,-11.51059
-9.504378,-21.409973,-10.7267275
-10.770476,-20.840864,-10.713407
11.56998,-19.475828,-11.500666
14.86272,-17.161388,-10.342446
-17.339375,-15.586391,-11.076968
18.369257,-12.781847,-11.5882
-23.092907,-5.7675157,-10.595534
-23.402784,-1.0428225,-11.19217
22.742111,-4.7194285,-10.529616
-22.298721,-3.7585504,-11.372502
-2.1055758,23.056278,-10.292146
22.401674,4.0037975,-11.382388
-22.548666,6.360833,-10.42125
22.99662,2.3789194,-10.938895
22.142963,6.382401,-10.486387
-17.326378,14.669365,-11.449095
15.258671,16.947157,-10.724593
-6.573278,21.972845,-11.394028
-9.389771,20.58124,-11.500796
-7.035075,21.60021,-10.315427
8.83566,21.28445,-11.674602
-0.3802129,22.60044,-10.522882
-3.0907924,-23.590124,-9.729681
-7.5534897,-22.40484,-10.176683
2.6817431,-22.416094,-10.447675
-8.205759,-21.58875,-10.579559
10.966591,-20.0868,-9.297106
-14.4612465,-18.390776,-10.401527
-15.382925,-17.38474,-9.349097
19.769009,-11.754421,-10.0641165
21.079979,-8.448791,-9.674923
-22.091927,-8.849563,-9.70746
20.955173,-8.502214,-10.689728
-19.56262,-13.013315,-9.380481
-23.34883,1.3795751,-9.625595
23.83305,-0.6695704,-9.288985
-22.78014,1.592293,-10.303524
-20.986303,10.168047,-9.525362
20.594032,10.2406025,-10.688189
-19.18993,13.04734,-10.162585
19.240364,12.779806,-10.518313
-14.348175,17.572203,-9.684768
13.083283,19.221615,-10.260261
8.629564,21.600822,-10.51071
-5.2596045,22.757532,-10.723384
-3.9799662,22.594347,-10.713213
1.702116,22.566225,-10.504942
-3.6291833,-23.395802,-8.296832
0.4314719,-23.400627,-9.138407
-6.231001,-22.484474,-8.522495
-9.217581,-21.287018,-8.712934
10.978087,-20.084766,-8.293449
-14.125834,-18.66978,-9.469839
-15.747348,-17.220469,-9.296019
20.075977,-12.035505,-9.104162
21.196547,-8.120188,-9.477664
-21.33165,-9.695236,-8.635121
22.050613,-7.9470077,-9.182355
-18.44799,-14.546674,-8.65587
-23.348806,0.99539524,-8.621852
23.68086,0.35161194,-8.95286
-22.772411,1.1543944,-9.26883
-21.588806,8.826785,-9.491006
21.134022,9.542922,-8.8399935
-19.18064,13.1084585,-9.124436
18.856508,13.305633,-9.510213
-13.829102,17.920616,-9.620909
13.846532,18.389883,-9.541133
9.539264,21.645927,-8.526433
-6.920945,21.709496,-9.253656
-3.932652,22.66505,-9.615231
6.5740523,22.6102,-8.537745
-4.868611,23.229582,-8.764427
0.17488898,-23.411097,-8.080543
3.531257,-23.538284,-8.5840845
6.1019015,-22.495148,-7.6361413
-11.833311,-20.319221,-8.127249
-14.199751,-18.773745,-8.422867
15.930261,-17.099277,-7.3817277
-21.886324,-10.350022,-7.977884
-22.148846,-8.529512,-7.740845
21.338747,-10.841264,-7.6146545
-22.360533,-8.577533,-8.197835
16.186207,-16.864382,-7.676694
23.714268,-1.3272297,-8.495561
-23.359743,-0.5867277,-8.139472
23.762981,-1.513868,-8.238596
23.26297,7.7853456,-7.4823427
-20.864399,10.173242,-7.3391824
20.788927,11.864544,-8.080578
-18.132866,14.9058,-7.500226
16.83838,16.31314,-8.236663
-13.937807,19.20109,-7.2925906
-12.1754,20.707981,-7.558173
-8.895451,21.670734,-8.283154
-4.1724157,23.091667,-8.275937
-3.4387496,23.600367,-7.596112
2.482067,23.600145,-8.674499
-2.8319044,-23.28947,-7.03776
2.617637,-23.402687,-6.6750665
-7.270637,-22.302927,-6.65768
-9.374567,-22.00988,-6.8861547
10.228759,-21.596724,-7.34174
-14.438291,-19.369156,-6.3955703
19.105421,-14.055818,-6.948371
21.490234,-9.800032,-7.6753197
-21.230164,-11.555897,-6.445113
21.306122,-10.610431,-7.289531
-15.2152815,-18.328962,-6.7187853
-24.439383,-2.8160627,-6.485818
23.62976,0.7797765,-7.0320473
-23.325958,-2.0596395,-7.213222
-23.356846,4.6568093,-7.5108995
22.858774,8.121586,-7.6692386
-20.841276,11.054455,-7.683739
19.894478,12.763023,-7.511376
20.362806,13.323904,-6.4340143
4.528964,23.272446,-6.994583
-14.060908,19.812723,-6.5853457
12.787244,20.510868,-6.345188
-7.172275,22.599089,-7.22279
7.8352675,22.508238,-7.477273
-1.3467131,24.74208,-6.3550005
5.07155,23.611526,-6.9938726
-5.387344,-23.402973,-5.7191987
2.772128,-23.361464,-6.409197
-7.153941,-22.943424,-6.051621
-11.317811,-20.8949,-6.3685293
12.663594,-20.467247,-5.4229655
14.421039,-19.46571,-5.921802
-17.155397,-16.664589,-5.8269205
20.53515,-13.10068,-5.5168543
22.558336,-7.038831,-6.7062173
-23.41204,-6.9975023,-5.3174224
23.58911,-5.559773,-6.513549
12.859084,-20.222204,-5.303093
21.89011,-10.630326,-6.254065
24.616913,2.7075963,-6.5384054
-23.98785,-0.90707934,-5.787277
-23.571129,1.7951597,-6.292622
22.774977,9.341047,-6.5696907
-19.478237,13.88394,-5.581451
4.2078257,23.815992,-6.240723
15.211015,18.959908,-5.5833297
10.293768,22.028534,-5.759861
-11.734546,21.848534,-6.033254
-7.4726114,22.600994,-5.648289
-3.5836759,23.496592,-6.607218
4.4332285,23.600155,-6.027958
0.48909378,24.608934,-6.2689533
0.5370123,-24.397741,-4.5463085
-0.17946208,-23.582294,-4.9486885
-9.341701,-22.657068,-4.3281455
-9.491061,-22.381601,-5.42903
11.438871,-21.607748,-4.956521
-18.570988,-14.8841715,-4.8740683
-18.913818,-15.760407,-4.512391
-22.768017,-9.390992,-5.711998
21.950888,-10.344802,-4.6567793
-23.414482,-7.271054,-5.510302
-13.416794,-20.00059,-4.3197594
23.703543,-5.329147,-4.291214
-23.171486,-7.5542164,-5.5481873
24.252623,-4.882678,-4.7548075
24.70764,-2.1012917,-4.458933
-23.434177,7.214996,-4.5998416
21.947735,11.805359,-4.3817644
-2.352843,24.63814,-4.2900267
-17.81111,16.371727,-5.469043
16.93616,18.28736,-4.5404143
13.326719,20.4292,-5.7300863
12.150836,21.823587,-4.5519147
-7.2546163,22.75015,-5.366737
-4.568434,23.472372,-5.094159
-2.3710136,24.589268,-5.350022
3.5499809,24.602806,-5.473177
0.1580714,-24.408007,-4.2719865
-7.192264,-23.398546,-3.3405385
5.6831264,-23.4006,-4.517383
9.313379,-22.426195,-4.1647453
14.637605,-19.109715,-4.711619
15.624518,-18.406406,-3.5128448
18.668604,-14.9838705,-4.692483
-20.733213,-14.099953,-3.856719
20.803207,-12.08723,-4.5040216
13.9325905,-19.568727,-3.6107328
-22.870337,-7.465944,-3.286925
23.524757,-3.8153303,-4.5700517
-23.396162,6.745827,-3.7312593
-23.79284,-5.587659,-4.2284036
24.69854,3.3095188,-3.5201843
-22.896385,8.818956,-4.6250567
0.7134856,24.412907,-4.7280655
21.0879,12.444567,-4.413708
-19.65437,14.410139,-4.338361
20.080204,14.769204,-4.054933
-13.53042,20.467026,-3.3844087
-11.408438,21.600689,-4.482999
-9.5252285,22.641027,-4.1044083
-5.3305144,23.62044,-4.1946282
7.4801383,23.630756,-4.462095
0.9990621,24.600271,-3.3043504
-3.1608555,-24.398401,-2.3295245
1.6501411,-24.399818,-3.5131097
-5.8036327,-24.199207,-2.3409271
-8.123708,-23.20958,-3.7351584
-11.0107975,-21.587006,-2.5067067
-13.326798,-20.033344,-3.6913877
-16.691694,-17.743805,-2.7560527
18.932644,-15.035169,-3.4861789
13.594597,-20.13141,-2.329786
-22.19627,-10.73345,-3.222002
23.401695,-7.914293,-2.6396809
-25.032799,0.88770866,-2.56995
-23.771534,5.6086335,-3.1909106
24.626974,-0.7413987,-2.528624
-24.12135,4.938574,-3.6104956
-0.66006225,24.675817,-2.448732
23.149368,8.821083,-3.3872528
-22.592833,10.342034,-3.3739362
22.960962,9.123008,-3.139984
21.817303,12.331013,-2.3352509
-15.32175,19.625332,-3.444522
-12.299811,21.41337,-2.7288258
7.9320188,24.119123,-3.2481053
10.514996,22.639898,-3.5020304
6.9678864,23.600883,-2.3184497
-0.18948844,24.598469,-3.3588257
3.6239576,24.600554,-2.5179102
-1.7658341,-24.403465,-2.1219504
4.263529,-24.409998,-2.1479762
5.743143,-24.348028,-1.4698826
9.8457775,-22.326866,-2.3013484
-13.786718,-20.287407,-2.0434473
16.008,-19.028158,-2.5583344
12.7341,-21.273335,-2.2396233
-20.220068,-14.89494,-2.0540366
21.392458,-11.721778,-1.6719519
-24.620087,-3.58501,-1.5420655
-24.635029,0.64953876,-2.7290301
24.733608,-3.5711656,-1.5433644
-24.304049,-1.8949928,-2.5957859
-3.539586,24.235674,-2.5847738
24.315247,5.191318,-2.3605912
-23.444616,6.242499,-2.434978
25.27584,2.7375941,-2.1109304
23.689598,7.5018578,-1.6726711
-19.336311,15.659125,-2.4662385
17.150547,18.08695,-1.700821
-7.138822,24.186125,-2.306721
-12.343332,21.61619,-1.509042
4.0855746,24.889997,-1.797995
-7.4622483,23.221235,-1.8162355
-4.3964663,24.600433,-1.5412332
1.4231378,24.600231,-2.7012043
-6.576452,-24.399525,-1.1452082
-1.2499218,-24.476164,-0.44917545
4.7547393,-24.405642,-0.72726715
7.5134106,-23.415155,-1.5686561
10.661882,-22.403402,-0.42086112
9.9099865,-22.594353,-1.2983066
18.088884,-17.193085,-1.0280272
-18.136934,-16.561918,-1.6200418
22.435583,-11.2193165,-0.569939
23.902683,-5.958727,-1.7238023
-23.563864,-8.006799,-0.7075724
23.435827,-7.293038,-1.512413
6.358993,-23.79053,-0.28483298
-13.722263,-20.494892,-1.4369724
24.713823,2.2976665,-0.45722634
-24.943295,-1.5346462,-0.8900481
-24.652792,1.4882562,-1.2689025
23.584051,9.689039,-1.4932272
-20.53207,14.591209,-1.6800748
8.760445,23.386076,-1.3426968
17.545555,17.683008,-1.5148952
-14.21143,20.850126,-0.31806976
13.391855,22.05498,-0.31626108
11.545989,22.630093,-0.53471935
8.777475,23.600529,-0.8037281
-2.001633,24.611061,-0.9112149
3.53952,24.600119,-0.41476706
-7.5910997,-24.308496,0.2926303
-2.606235,-25.61371,0.72698706
4.7361393,-24.400116,0.46916106
8.667695,-23.36502,0.29295182
-12.278284,-21.753248,0.71653223
14.119308,-20.815424,0.2728146
-17.356712,-18.485779,0.5820767
21.360304,-12.611724,-0.7249204
-22.530064,-12.138789,0.6646274
21.377981,-11.917732,-0.51253927
7.499639,-23.46873,0.71118665
-23.966549,-6.3702874,0.6839764
24.674263,-2.2264671,-0.4837448
18.58369,-17.382092,0.118905224
-24.422436,-4.518186,0.6825395
24.637362,4.579443,0.4912737
-22.721184,9.993349,-0.6690293
8.399347,23.411684,-0.71707016
21.421873,12.908409,-0.4933003
-18.51905,16.391542,-0.6945885
19.758698,16.424276,0.10956632
15.798581,19.756334,0.57411045
-9.954606,22.736303,0.21434993
-9.527651,23.61811,0.03773283
-5.5611925,24.581812,0.6050399
0.81122315,25.686867,-0.37853813
6.807868,24.589457,0.14309677
-0.28392,-25.398155,1.6139455
-3.2747688,-24.526718,0.6073701
6.1637487,-24.398811,1.7177165
9.597561,-23.398245,0.65874714
12.839094,-21.81652,0.5633951
13.204497,-21.528349,0.7260304
-17.49273,-18.283232,1.6574662
18.434484,-16.63788,0.48306403
8.011277,-23.892107,0.9568092
-22.55704,-11.080948,0.789453
23.646084,-7.367113,0.4954311
-24.549442,2.9944057,1.170755
-24.715097,5.908851,0.6601867
25.630503,-0.5038805,1.4947271
-24.183756,5.2763686,0.31891853
7.772473,23.940615,1.1253389
23.4687,8.231856,0.5001626
-22.856215,9.914956,0.69843316
23.653343,8.829453,0.95744205
21.096996,13.455161,1.4966425
19.753798,16.423622,0.6074576
16.59981,19.26943,1.7176839
-10.633772,22.536736,1.6263012
-9.464205,23.607101,0.62461454
-5.3760366,24.600834,1.1757668
5.7682133,24.597992,0.5408358
-0.40124673,25.599102,1.484492
-0.89570606,-25.403622,2.0433335
-3.571644,-25.23192,1.4769701
6.6054454,-24.398832,2.5512755
8.020704,-24.052103,1.6977373
12.070685,-22.397877,1.2902844
13.736489,-21.327036,1.4723215
-17.531836,-18.245785,2.6999156
20.46606,-13.909841,1.7940948
21.931368,-11.827356,1.4702388
-23.042898,-10.635823,1.74894
23.738068,-9.256036,1.9838345
-23.631847,-7.4303184,2.5395951
-25.272118,2.6287649,2.1774516
25.629187,-0.8859424,2.2420392
-25.537794,2.100097,1.5760022
-19.248093,16.009922,1.6219764
23.28026,10.044968,2.0283484
-22.263487,11.943934,1.6644208
23.45214,10.031246,2.3700857
21.61587,13.209265,1.9670599
19.018167,17.1893,1.3587598
-13.836428,20.992601,2.4808202
-1.1698234,25.56811,2.0822792
-7.6916337,23.795887,1.5636045
-6.300991,24.60052,2.5508862
5.294979,24.60083,1.2693477
-0.1601326,25.607906,2.2795067
-0.3805579,-25.39906,3.526062
-5.5463495,-24.439285,3.1952956
6.1158557,-24.395918,2.2833512
7.6159296,-24.40466,2.4943724
11.028369,-22.401371,2.6124744
-17.4887,-18.645157,2.8088653
-18.155676,-17.63774,2.443293
18.816048,-16.344608,3.235602
-21.066189,-14.12155,2.993453
20.829552,-13.702906,3.4518163
24.594185,-5.2970443,2.3449554
-25.19584,-3.868738,3.7127802
25.831055,-1.2868009,2.6527193
23.284105,10.631967,3.635546
-25.013128,5.3577857,3.7192752
24.44348,6.256008,2.3319504
-25.310078,3.200293,2.561077
-24.826447,5.8541565,3.715357
21.89145,12.441066,3.434688
-19.908012,16.172783,3.4934394
19.213295,16.968277,2.2666836
-13.559074,21.200344,3.2449164
13.736331,21.516882,2.4400618
14.44587,21.345016,2.270702
-6.1321316,24.60856,3.2432342
5.6391563,24.60048,3.4800558
-1.5475893,25.600218,2.8027415
-0.54126346,-25.407015,4.0403132
-3.3413844,-24.427773,4.4880185
4.9832625,-24.405731,3.5977015
6.728525,-24.733591,3.7446141
11.63848,-22.357553,3.4842045
-14.283545,-21.377346,4.2646213
15.45692,-19.482904,3.9213064
-19.435204,-16.291513,4.576759
20.094767,-15.209499,3.5336015
-1.214031,-25.169947,4.7483807
-23.907597,-8.705839,3.6360474
24.74358,-4.917968,3.6741962
-24.868393,5.465002,4.0072684
-12.208178,-22.217854,3.5420249
25.592354,2.0284293,4.4378033
-24.164045,7.0692925,3.278506
17.079454,19.043053,4.5663266
22.952711,9.896949,4.5207596
-21.526577,13.202,3.2721548
22.27672,12.950412,4.1351194
18.17558,18.067451,4.4641185
15.063697,20.28882,4.2201877
15.681514,20.285036,4.5277014
11.639524,22.600546,3.508821
-7.7578583,24.291954,3.7195451
2.9501376,25.219606,3.828847
-2.3128436,25.600622,3.4428344
-1.0499216,-25.405184,4.5700393
-3.895592,-24.401117,5.2402487
3.5443335,-24.39878,4.5359263
-9.825493,-22.845587,5.354599
12.187157,-21.866148,4.2656393
12.569788,-22.317614,4.619943
-16.627214,-19.070555,4.5189705
0.87704456,-25.480782,5.1269855
-20.700512,-14.385847,4.66407
22.876389,-10.985839,5.600057
-24.708849,-2.002206,5.0379486
-25.173931,-0.06187785,4.5518427
24.565804,-4.840073,5.456269
-25.190794,-3.155779,4.315471
17.609941,18.596222,4.29618
24.696276,3.1314778,4.4858155
-24.56654,5.5645685,4.8224616
24.793516,4.712653,4.9042206
22.684292,11.499236,5.489659
-19.77968,15.754858,5.6541147
18.631393,17.673203,4.9574013
-15.368787,19.57732,4.4984565
-14.57889,20.87904,5.658717
10.987222,22.301472,4.2801967
7.5766273,24.660408,5.4470754
-2.4005802,24.63252,5.395946
4.7896757,24.601702,4.8022904
0.32601005,25.600136,4.4596
-2.4882388,-24.398378,6.6354666
2.432308,-24.401155,5.9831066
-8.330005,-23.406498,5.338075
-12.443042,-22.430729,6.4243507
12.988836,-21.074976,6.715017
15.840162,-19.473614,5.6513386
-16.118603,-19.530853,5.476023
19.360935,-15.8978,6.0753922
-21.979164,-12.913655,5.743593
23.251293,-7.7129173,6.5377216
24.362211,-1.75538,6.136675
-25.490208,-3.7020674,5.27997
25.615656,-1.5513262,5.496494
14.573233,20.190952,6.6588225
-24.876694,6.5504284,6.706069
24.597591,6.7129035,5.4567747
-24.97176,3.7647288,6.2135153
-23.937956,6.848752,6.540438
21.80396,13.358091,5.4339437
-18.410444,17.608875,6.4230304
4.0917454,24.91761,6.0337873
14.1328745,21.31643,6.4277635
7.4127803,23.782803,6.249827
7.211025,24.225668,5.970961
-4.267045,24.604654,6.4004054
1.7219762,24.60158,6.3146696
5.391429,24.609076,5.9275026
-1.3298254,-24.40769,6.3198686
3.660532,-24.402094,7.391983
-6.9543734,-23.900879,6.278997
-11.110746,-22.369675,7.6449986
12.765778,-21.292004,7.55389
-16.418364,-18.759682,7.2301245
-21.220938,-13.908715,6.2931666
20.563017,-14.487525,7.4671392
-21.28206,-13.1005,6.6494718
10.871846,-22.17393,7.215337
23.578835,-7.5862393,6.493535
-24.798702,-2.3574755,7.2059536
24.36445,3.9031572,6.985794
24.63873,-0.9803488,7.425383
-24.451706,5.5206275,7.1950197
24.201221,7.2044973,6.837223
-21.29156,13.633075,7.567865
-23.275574,9.453895,7.561761
22.220554,12.741623,6.271797
-19.09993,16.73907,6.5420566
-12.429687,22.287075,7.405019
-11.527768,21.958797,6.841888
10.330971,23.039291,7.395267
-7.4075165,24.42157,7.3609486
-3.8556733,24.611242,6.913863
1.4201676,24.599901,7.6614633
6.494748,24.362755,6.555156
0.46549746,-24.39403,7.279274
4.7925897,-24.401031,8.661475
6.667226,-23.363462,8.529291
8.30651,-23.562819,8.212366
-14.493858,-20.317272,7.7911325
15.63462,-18.396757,8.490952
19.644894,-15.119823,7.333151
-20.525171,-14.080106,8.686101
21.84654,-12.007618,7.5403337
15.073224,-20.07266,7.8119726
-23.810953,-7.5863767,8.714023
24.571447,-3.8261871,7.4112706
-24.463945,6.990317,8.269776
-23.735899,-5.373997,7.8847775
24.700935,3.300708,8.481048
-23.879955,8.858281,7.3793573
0.24948366,25.39021,8.109399
21.051664,13.579017,8.334001
-19.465218,15.438834,7.371606
20.246487,14.595281,8.0279255
-14.250538,20.635082,7.753396
-13.588649,20.84669,7.532306
9.0099945,23.21645,8.249094
7.902855,23.381388,7.3285503
-3.413181,24.600302,7.537214
2.6072772,24.600054,8.288391
-4.1447062,-24.401747,9.359221
2.6363583,-24.399147,8.478968
-6.65954,-23.398981,9.698108
7.045379,-23.503054,8.789134
-11.358289,-21.420752,9.46161
12.725783,-20.758556,9.653291
4.898526,-24.313862,8.364284
18.306204,-16.761787,8.5507965
-21.615936,-13.11847,8.329016
23.406282,-6.9252553,8.899088
24.509905,-3.8793786,9.448922
-24.160439,-6.025176,9.625919
24.293436,-4.941383,8.263661
-24.890013,-4.351914,8.682059
-24.590357,1.1886549,9.303381
24.343287,3.4235947,9.026058
-24.135033,5.8651295,9.554561
-19.89228,14.712356,8.407592
20.352106,14.250951,8.958425
-18.144358,16.89706,8.789311
17.626152,17.662477,8.516114
-12.759413,21.61906,8.877337
11.810586,21.542402,9.230572
11.545307,22.643616,8.473509
-0.7844043,25.179136,8.362921
-1.0172935,24.601244,8.298631
4.6382833,24.600735,9.486523
0.37786824,-24.398563,10.690138
-8.542549,-23.409498,9.817963
6.6401467,-23.398193,10.423419
9.429821,-22.325924,10.63136
-12.394086,-20.827772,9.983584
-16.00585,-18.71569,9.575889
-17.494799,-17.255758,10.658786
22.039099,-11.204364,10.119499
23.006,-8.159151,9.376146
-23.117743,-9.859339,9.700847
23.041162,-8.714807,9.218819
-20.663368,-13.240964,10.362658
-24.320646,1.5289056,10.34029
24.678602,0.2553073,10.084263
-24.827871,1.2341475,9.694452
-21.857464,11.298934,9.508723
23.146713,10.353132,10.166298
-21.168814,13.144221,9.833162
21.309078,13.583699,9.506878
19.33443,15.383863,9.838266
-14.382418,20.263018,9.79686
-11.371578,21.59904,9.4898405
-8.180918,22.96164,10.192557
-6.172066,23.793186,10.158454
-4.3999147,24.600424,10.454422
1.4279076,24.600334,9.302368
0.21689099,-24.410322,10.884079
-5.36629,-23.401192,11.395602
3.7073624,-23.586412,11.323364
6.9634857,-22.916452,11.712247
-12.939126,-20.648436,11.58548
9.678446,-21.629921,11.641502
15.289101,-18.657387,10.967501
-21.249067,-11.432777,10.563141
19.414804,-13.8942,11.404286
-21.782942,-11.256955,11.040331
17.22854,-16.596325,11.247853
23.884762,-3.9548728,10.517687
-24.464746,-1.6023448,10.90274
24.43351,-3.8921032,10.410302
23.069933,6.38386,11.545797
-23.737007,6.912499,10.995608
22.539736,9.03348,11.188451
-21.62622,11.141402,11.474875
-22.238926,11.188693,10.388521
19.156664,14.97174,10.287872
-15.2234,19.697086,10.505368
-12.728053,20.41125,11.2991495
11.145604,21.65603,11.664677
8.728721,22.602255,11.43004
4.3985705,23.895123,11.206502
-2.5643969,24.60022,11.061686
-5.5004153,-23.323854,12.439958
-0.45962217,-23.527885,12.366109
5.319348,-23.40885,11.8677635
7.658907,-22.42417,12.353706
-9.541122,-21.82714,11.4725275
13.169006,-20.082191,11.299393
-15.254672,-18.478577,12.248248
19.111666,-13.569899,12.567059
21.486116,-9.222978,12.079921
-22.462051,-8.692641,11.717052
22.3836,-9.026823,11.414739
8.253958,-22.412382,12.713278
-24.129183,-3.7178824,12.387765
23.633911,0.4816136,11.523863
-24.343903,-4.295935,11.270202
-24.080458,-0.82026416,11.811332
22.64556,7.57409,12.492511
-20.483395,13.083923,12.243404
7.136663,23.000566,11.255223
17.380354,16.862558,12.443007
16.571966,17.731436,11.311309
-12.269687,21.038267,12.086769
-9.259659,21.706985,12.467406
-6.5249,23.415688,12.208863
-3.8271148,23.459568,12.7097845
1.725874,24.43793,11.657998
-4.252133,-23.414185,13.271389
1.2754456,-23.40856,12.831579
-7.1761484,-22.400368,13.453628
-10.244606,-21.38576,12.504866
-13.538006,-19.06936,12.921779
-16.655003,-16.513765,12.463413
16.955898,-17.212757,12.470627
20.030611,-12.236873,12.315417
-21.491148,-10.70451,12.745262
21.45962,-10.75094,12.444569
9.734013,-21.38512,13.216122
-22.972704,-5.4582543,13.686424
23.632545,-1.38769,12.4926405
-23.791815,-6.5413637,12.266723
-23.476662,-3.3641987,12.79637
22.66546,5.513339,13.495153
-21.796589,10.848358,12.623058
6.1452794,23.01146,12.283523
18.367683,15.021204,12.432039
-16.607748,16.180815,13.653195
-14.5287895,18.69282,12.897253
-10.481633,20.517006,13.580077
8.419667,21.801888,13.414309
-4.3272285,23.027868,13.016157
-2.506955,23.599659,13.630006
1.5282841,23.600075,12.619342
-5.3793917,-22.424488,13.234043
1.7967488,-22.458748,14.436924
-7.1234426,-21.878988,13.485163
-9.821538,-20.191786,14.702523
11.988849,-19.26473,14.2479725
-14.254062,-17.708485,14.492528
16.156193,-16.888857,13.692657
-8.944036,-21.06769,14.201143
-21.439404,-10.25853,13.490391
22.260088,-7.374092,13.301866
-23.057037,-0.8444138,14.042086
-23.418615,-0.31491697,13.496049
22.980957,1.0791371,14.147886
-23.205616,4.6048417,14.017274
21.74314,8.468844,14.459995
22.380827,5.573614,13.778138
-21.38521,10.390895,13.262156
19.136282,12.833361,14.457099
10.549101,20.235615,14.374534
17.421724,16.117968,13.428911
12.737613,19.503172,13.630286
-9.25568,21.657993,13.567819
9.00908,21.751127,13.257492
-0.23905161,22.440617,14.636729
4.7259126,22.569666,14.411532
-1.2552893,-23.098349,14.769305
3.7717204,-22.398256,15.646469
6.7042913,-22.457138,14.423932
9.662513,-20.44864,14.880057
-12.060629,-19.432056,14.622099
16.100985,-16.953203,14.515898
19.57569,-12.632136,14.691953
-19.64854,-12.097901,14.280138
20.674812,-10.313904,14.498379
12.427155,-18.801476,15.286949
-21.994223,-5.624654,15.304532
22.61445,-1.6388686,14.439087
-22.958076,-5.704552,14.288466
-22.556408,-2.9337313,14.8588705
22.67733,5.2196054,14.576047
-20.624023,9.926509,14.69072
1.9970925,23.000916,14.418462
17.211624,15.096107,14.497423
-14.655722,16.582779,15.3831
-12.073798,19.19826,14.2582855
11.724775,19.715832,14.360132
10.74881,20.116217,15.485778
3.9642918,22.159409,14.945912
-1.3273942,22.601469,14.76346
-1.3278277,-22.40355,16.382524
-2.1328974,-22.60063,15.270344
3.7969625,-21.306059,16.56224
7.564594,-20.435339,16.52743
13.593439,-17.902065,15.9472275
13.302921,-17.740606,16.08684
-16.36588,-14.402014,16.49065
16.711235,-14.576992,16.224098
-7.7906766,-20.672348,15.294666
-21.252094,-7.702916,15.4914055
22.09799,-4.4440417,15.30641
-21.717722,3.899405,16.562788
-22.23409,-2.4827948,15.541392
21.513811,3.3544593,16.312061
-21.010866,7.5107555,15.944076
18.160694,12.949474,15.437741
20.386887,10.052517,15.521407
-17.70256,12.91559,16.716398
16.656029,15.684902,15.429978
13.744151,17.493708,16.594105
-8.893723,20.83379,15.255628
-5.331863,20.726082,16.359383
-2.4911993,22.576677,15.412361
1.9646057,22.20602,15.865784
-2.9846702,-21.397089,16.311653
1.6401119,-21.40091,17.436611
-5.1352954,-21.59523,16.27955
-9.054275,-19.356888,17.666727
10.604903,-18.412874,17.50566
12.419939,-17.903254,17.077305
-18.421001,-10.593648,17.158365
18.683186,-11.328158,17.508512
-18.666998,-10.384486,17.644035
6.8598137,-20.233816,17.665987
21.483059,-5.0641046,16.510231
-21.193811,0.47943628,17.639576
21.112211,-4.855691,17.063637
21.230669,1.3764197,17.370747
-20.129633,7.5265837,17.615618
18.883389,10.294931,17.682756
-13.854258,16.217289,17.60872
-16.409311,14.562783,16.416471
-0.107808225,21.42288,17.007635
-10.228625,19.524937,16.566813
5.415499,20.89236,17.59974
-3.8919132,21.824856,16.256462
6.8993073,20.635065,16.330944
-0.36002254,21.801603,17.429031
-1.1317737,-20.797148,18.108192
4.6842265,-20.43942,18.523539
-6.3210835,-19.428102,18.4627
9.435649,-18.799917,18.15888
11.668103,-17.999615,17.662125
15.633524,-14.405033,18.483383
-18.708548,-8.43449,18.543634
-20.494234,-4.757378,18.078724
20.670717,-6.296109,17.44147
-19.907642,-5.725266,18.677704
5.6778135,-20.329908,18.03749
21.54587,2.430243,17.49175
-20.71312,3.8413622,17.333612
21.733713,1.1000826,17.260468
20.016365,6.758746,18.336674
-17.062721,12.195467,18.315063
14.822688,14.967599,17.960037
-8.161351,19.21756,18.637651
-9.787973,18.325548,18.438734
-6.4700656,19.31053,18.699173
9.047835,19.361172,17.7692
0.70828795,20.527216,18.55732
2.2419865,-20.412867,19.031124
-1.4559171,-20.207012,18.689709
5.594797,-19.449745,19.488169
6.842518,-18.766085,19.144245
10.772248,-17.382122,19.531263
-12.348136,-15.41927,19.485964
-6.501551,-19.512405,18.546759
-17.518475,-9.17147,19.606653
-17.780796,-8.578941,19.478521
18.639103,-7.990948,19.140137
-19.46115,-5.238514,19.109888
20.004719,-4.834199,19.550882
20.5009,-1.4493371,18.656202
-19.303097,4.0478096,19.710608
20.086052,5.332889,18.397297
-17.431349,8.695577,19.438812
-17.013605,11.140287,18.817068
15.362266,13.077369,19.333021
-11.517319,15.766073,19.331165
11.806379,16.733112,18.791267
7.688905,17.422186,19.65184
4.5770183,19.57778,18.512043
-2.1584141,19.371162,19.697464
1.747866,20.759096,18.324919
-5.3494954,-19.400808,19.502062
1.2234019,-18.918705,19.990421
-9.497106,-16.997858,19.486353
8.613761,-17.397608,20.48976
-10.971843,-15.8575115,19.353148
-3.175192,-18.459435,20.550293
-15.298618,-12.470603,19.508963
-15.290299,-10.983403,19.820612
-16.549665,-10.125339,19.70575
17.616323,-7.502205,20.435848
-19.789202,1.70474,19.3064
-18.16683,4.3599753,20.08914
18.539886,0.21586823,20.58132
-18.90472,4.9388595,19.682913
2.482978,18.721924,20.103704
17.194818,10.226369,19.512836
15.641355,11.293872,19.653608
-13.188282,13.218766,20.11474
13.3907795,13.261125,20.249805
12.626114,14.728366,19.499575
-8.837666,17.17439,19.353882
7.1666546,18.124002,19.503553
4.6465425,18.533928,19.55892
-1.2405752,18.82911,20.267254
0.2258793,19.893522,19.294184
0.6693829,-18.400318,20.485676
4.2204046,-17.18656,21.695911
7.5383835,-17.139385,20.756664
-9.290548,-15.447285,21.489891
-15.39722,-11.217841,20.342623
-3.9067879,-17.19684,21.5561
16.812576,-9.067572,20.542624
11.409583,-14.288053,21.3917
-17.844687,-4.51076,20.73755
18.669903,-1.821011,21.405357
-17.651842,-2.033092,21.228434
-18.65761,-0.12298168,20.398785
16.609991,6.2394414,21.601543
-16.341719,9.232739,20.415907
0.049765155,17.562714,21.737303
-9.801819,15.860382,20.625694
-7.374401,15.606656,21.473644
-3.8321657,17.207968,20.904377
-1.6172136,17.811718,21.292933
3.5948594,18.673805,20.407455
1.1351004,-18.093847,21.275103
-1.2916528,-17.31315,22.539082
-7.428329,-16.338469,21.490437
8.223043,-15.700311,21.482471
11.603514,-13.847163,21.375547
-11.361125,-13.392341,21.49729
12.396579,-11.842265,22.32367
-16.259197,-5.8565845,21.38565
15.668088,-7.3531656,22.485538
17.06978,-6.3550925,21.492702
-16.19923,-1.5831388,22.701422
-17.40202,-1.9714718,21.47064
8.012437,14.612269,22.41481
17.860157,-3.7430916,21.497456
-17.438437,3.7550626,21.418808
18.172493,0.8497807,21.482712
16.188211,7.341865,21.224876
-14.337844,9.354735,21.654814
14.101755,11.225297,21.450785
-11.890585,11.396139,22.044447
10.349383,13.666722,21.624535
9.579276,14.534817,21.620842
8.200792,15.138012,21.963602
-2.6517565,15.844642,22.263136
5.5673995,16.662493,21.426657
0.5037766,17.26018,21.839043
-0.7507105,-17.286531,22.491297
-2.3693101,-15.419705,23.470524
3.7581139,-16.235023,22.657305
-4.6988835,-14.432696,23.5982
-6.388751,-14.384832,22.505512
-10.505794,-12.528225,22.543993
11.508975,-11.758482,22.23908
11.681513,-12.297157,22.494707
14.315962,-6.765547,22.675728
2.074541,-16.184496,22.486319
14.261427,-6.9721766,22.53276
-14.668794,-4.4362597,23.438513
15.757619,-2.7008991,22.394396
15.360718,2.973295,23.400616
15.785138,1.258303,23.30624
-14.75328,2.508952,22.979576
14.488676,3.7829385,23.404436
-14.310334,5.5183926,22.55342
12.485245,6.2133045,23.699636
13.703368,8.414473,22.521856
-12.412015,9.589712,22.505781
-10.150107,10.977478,22.48934
-10.136058,12.802869,22.488596
-9.352636,12.633411,22.487425
9.056115,13.674036,22.495226
-0.30458525,14.842879,23.719812
-4.3684177,15.597121,22.489868
0.73855776,14.739264,23.355019
6.8541803,15.273453,22.491373
-2.4086719,-15.436462,23.453236
2.2139108,-14.37639,24.633873
-3.3513098,-14.035201,23.796652
-7.2856417,-12.474149,24.473314
-10.916518,-10.998954,23.362347
9.630245,-10.760383,24.211912
-12.090262,-8.686096,23.62155
-9.613586,-10.726222,24.442398
15.311258,-2.566629,23.480074
-14.478172,0.5145698,23.496191
14.760018,0.66162235,23.46298
5.081901,-12.97885,23.950537
15.37422,0.52100843,23.48783
14.412797,4.226043,23.468395
12.551276,5.0222864,24.044653
12.500498,6.432854,23.817118
-10.38112,8.568745,24.489798
-7.899601,11.379642,24.106201
5.5703135,11.979731,24.118834
-3.3769982,12.612258,24.479042
0.8322159,13.29863,23.807991
5.8856974,12.401605,23.48431
2.6529288,14.591265,23.48992
-1.2801945,-13.757664,24.493557
-3.783407,-12.7905855,24.4906
1.6040635,-13.372273,24.518631
8.268391,-12.589063,24.485012
5.4073596,-11.483264,24.95344
-9.383931,-11.487949,24.485695
9.267572,-10.581468,24.49113
7.9138556,-10.503024,24.482954
8.486752,-9.363943,24.680937
10.49462,-7.290274,24.642353
13.454203,-4.3166256,24.47734
12.369161,-1.9205333,25.34728
13.722981,-4.390413,24.487585
-12.681371,-1.2411083,24.532887
-9.410275,-7.6461153,24.79683
13.569219,0.59199786,24.490118
-13.225197,1.8360019,24.484245
-12.807214,0.7164096,24.310932
-12.351407,4.571412,24.510569
10.515641,6.183953,25.201199
9.969601,7.764484,24.35858
9.626012,7.5871034,24.488651
6.7887506,9.367548,24.740337
-6.3181067,10.10609,24.940903
-6.3169503,11.588727,24.490528
0.78927183,10.421495,25.649385
6.27153,11.18812,24.500816
-2.2830827,12.534863,24.462406
3.7960463,11.728928,24.49227
0.10724371,-11.186436,25.484652
-5.3843374,-11.503089,25.485516
0.5543998,-10.497047,26.394234
-1.199372,-11.878195,25.500027
2.3463452,-10.521148,25.610687
-7.5790634,-9.341733,25.486895
5.4377856,-8.948525,26.185682
-6.577144,-8.560525,25.366154
-8.295491,-7.3601737,25.49049
-11.112968,-4.31479,25.490002
5.2384567,-10.599989,25.494146
11.574096,-4.5368013,25.489855
10.891458,-3.6324933,25.496563
11.736072,-0.64255565,25.491228
-11.367422,-0.39811453,25.489998
3.5325432,9.939422,25.284376
10.962186,1.0392089,25.487705
10.449698,2.5006998,25.489546
11.15579,4.6039376,25.490852
9.517016,3.398955,25.476295
7.5756063,5.7005453,25.50969
-8.149814,5.4703317,25.725548
-8.630578,7.7258263,25.486933
7.816222,6.7418175,25.492598
4.831537,7.481329,26.434761
-5.575268,9.075,25.399998
3.6847677,9.608112,25.52166
-3.4471772,10.525855,25.566034
1.9679679,10.010124,25.491663
0.6625344,10.838539,25.495018
-3.5287354,-9.3693695,26.488403
2.8508525,-8.992098,26.49267
-2.6075795,-8.575563,26.356274
3.6438744,-8.399371,26.493343
-3.326814,-6.8087554,27.074528
-5.1796904,-5.6604652,27.318537
-7.3576374,-5.413135,26.486351
-6.1997805,-3.1006804,27.673132
7.2624435,-3.2033122,26.683985
7.6395965,-1.3709669,26.48982
9.807589,-1.2879102,26.486448
8.909786,1.4637492,26.494226
8.371335,1.8397584,26.488188
-8.056885,2.4398892,26.490618
-7.4004135,3.9949157,26.520893
-6.410318,5.5013237,26.486881
-6.427619,5.640603,26.491234
6.9708276,5.2974463,26.489752
-0.5266125,6.757292,27.350609
3.6970224,6.7444725,26.494478
0.22613747,8.275955,26.494415
-2.599249,8.649028,26.492792
-1.410668,-6.318859,27.487696
3.050843,-6.911479,27.491186
0.7627753,-5.5632324,27.492582
4.657133,-5.4549894,27.491713
-0.1603038,-5.029742,27.494488
3.8490145,-4.230458,27.487822
-2.3974924,-4.3739934,27.518967
2.3237154,-3.2344992,27.488926
-5.805542,-3.3032157,27.481903
4.6414776,-2.4022799,27.4899
-4.1844707,-1.1602814,28.664196
-6.054992,-1.1573722,27.484062
4.7197375,-1.3428558,27.48937
0.7476054,3.685377,28.172844
-6.9155126,1.8794919,27.493727
4.518759,0.6287517,27.490509
-3.528223,2.5624733,27.488123
4.8453245,1.4312644,27.485819
-1.2873709,3.5550761,27.634989
-3.9707484,5.1475873,27.489952
-0.82016724,4.8462505,27.384071
4.651635,3.8763478,27.489248
0.7246482,4.65454,27.490969
-2.7410755,6.8416514,27.487228
1.6601669,5.4893517,27.482218
-3.4849072,-1.3593984,28.492287
0.79251575,-1.9294149,28.499405
0.7422246,-0.6158238,28.491196
-0.4406668,-0.35881415,28.490332
-1.196983,1.054645,28.487934
-0.1252151,2.834567,28.485836
2.6317558,2.6004486,28.48985
